# .PCD v0.7 - Point Cloud Data file format
VERSION 0.7
FIELDS x y z rgba
SIZE 4 4 4 4
TYPE F F F U
COUNT 1 1 1 1
WIDTH 1098
HEIGHT 1
VIEWPOINT 0 0 0 1 0 0 0
POINTS 1098
DATA ascii
-0.02768562 0.031877775 0.6201666 13552791
0.19906604 0.032854848 0.62600005 14471073
-0.34429488 0.047682986 0.62637097 8945538
-0.33538499 0.048659917 0.62682611 8880259
-0.32485908 0.048281886 0.62682694 9011331
-0.31489283 0.047250591 0.62624329 9011845
-0.30501419 0.047308043 0.62571794 8946564
-0.29494563 0.04738877 0.62594378 8880772
-0.28498521 0.047365576 0.62557352 8946822
-0.27501988 0.047493145 0.62537497 8815749
-0.26481581 0.047775954 0.62537324 8881287
-0.25475109 0.047312602 0.62528962 8881544
-0.24511461 0.047149058 0.62548053 8750215
-0.23483191 0.046545755 0.62472093 8553093
-0.22485609 0.045866482 0.62406695 8553605
-0.21492796 0.045816988 0.6245966 8487813
-0.20498501 0.046467286 0.62521064 8422790
-0.1950981 0.04673031 0.62570369 8356998
-0.18502568 0.047177654 0.6260125 8225925
-0.17474853 0.045919456 0.62553483 8160389
-0.16688159 0.044878811 0.62245917 8160646
0.19875528 0.041628342 0.62333333 11444608
0.20596144 0.04529633 0.6240477 8553855
0.21500638 0.046965498 0.62503654 8487809
0.22503154 0.046663649 0.62505555 8618882
0.23463252 0.04687072 0.62559265 8618883
0.24496096 0.047657605 0.62604165 8750212
0.2552036 0.047161464 0.62542868 8881798
0.26501766 0.046657767 0.62546164 8881285
0.27495351 0.046652623 0.62562639 9012357
0.28500924 0.046843737 0.6263572 9012357
0.2950297 0.047315799 0.6264475 9078148
0.30305991 0.047273956 0.62664288 9012869
-0.34295905 0.053054526 0.621342 9011075
-0.33518463 0.053307217 0.62147677 8880258
-0.32515824 0.053007316 0.62150013 8945794
-0.31482524 0.052914899 0.62126428 8945796
-0.30501956 0.053019926 0.62126327 9011845
-0.29516652 0.052761063 0.62125015 8946566
-0.2853319 0.052317899 0.62075621 8946567
-0.27516744 0.051901307 0.62051451 8815238
-0.26456508 0.052152853 0.62071067 8815495
-0.25508183 0.052142631 0.62083364 8815495
-0.24471357 0.052530065 0.62082011 8553093
-0.23615086 0.051866204 0.62019992 8553349
-0.2299498 0.051076096 0.62 8619657
-0.21250381 0.051629819 0.62019998 8553606
-0.20507477 0.052589301 0.62083358 8422534
-0.19527604 0.05304385 0.62100023 8357255
-0.18512359 0.053291809 0.62117928 8357253
-0.17537706 0.053424239 0.62080014 8291719
-0.16765115 0.052211113 0.62023073 8160648
0.20790291 0.051076096 0.62 8750980
0.21565934 0.051858615 0.62036675 8553860
0.22513148 0.051807642 0.62040013 8618884
0.23574796 0.052242003 0.6207633 8684420
0.2449798 0.052393511 0.62119985 8815748
0.25459725 0.052133553 0.62079501 8881542
0.26493856 0.05231664 0.62071133 8947078
0.27519161 0.052822962 0.62090737 9012356
0.2848008 0.052793533 0.6212678 9077381
0.29516003 0.05255172 0.62137789 9208963
0.30168095 0.052472841 0.62172228 9143172
-0.13122706 -0.00084493932 0.63680005 12829330
-0.1244072 -0.0018629051 0.63395458 12895380
-0.11445779 -0.0025764196 0.63425016 13158551
-0.10496968 -0.0027130235 0.63419461 13289880
-0.095805548 -0.002403436 0.63300002 13355929
-0.084725261 -0.0042207665 0.63383335 13093015
-0.07438042 -0.0054623508 0.63442856 12895635
-0.065052941 -0.005537882 0.634 12698513
-0.054255843 -0.0052883206 0.63468421 12698513
-0.045211203 -0.0054000826 0.63440752 12699027
-0.035413258 -0.0040739155 0.63468426 12764817
-0.025370482 -0.0024935305 0.63480008 12961939
-0.018455835 -0.00051166874 0.63550001 13093524
0.056218378 -0.0021449639 0.63000005 13356700
0.062097259 -0.0037916936 0.63150001 13291168
0.086122923 -0.0071160183 0.6351667 13093788
0.094587423 -0.005762869 0.6347273 13158807
0.10329179 -0.0044503245 0.63515383 13026962
0.11092167 -0.0038337233 0.63850003 12829582
0.12588999 -0.0021636898 0.63550007 12697230
0.13485704 -0.00076769001 0.63607693 12631436
0.14214443 -0.00051394996 0.63833338 12894354
-0.15368584 0.0093856649 0.63450003 8489352
-0.14054167 0.0028055552 0.63850003 12631694
-0.13575932 0.0022336768 0.63373339 12960657
-0.12904888 0.0011322774 0.63100004 13355415
-0.033379558 0.0087929154 0.63133335 14212005
-0.01384709 0.0040123579 0.63250005 13093526
-0.0087943943 0.0088239638 0.63366669 13356183
0.045829609 0.0019569248 0.63350004 13619353
0.071183152 0.0011340717 0.63200003 13487514
0.15557842 0.0013452185 0.6353125 12631959
0.16516423 0.0033361875 0.63433337 13552286
0.17539212 0.0063411486 0.63453853 12038798
0.18225022 0.0088345585 0.63450003 10262139
-0.16039668 0.018981524 0.63825005 8160387
-0.15715075 0.015658643 0.63485008 8226436
-0.041137043 0.018222254 0.63042867 11447161
-0.035123676 0.015205152 0.63096768 11644536
-0.025258128 0.013385332 0.6344285 14079650
-0.015349148 0.0141958 0.63378572 14210978
-0.0045079472 0.01475587 0.63360006 13751198
0.0031857691 0.017659523 0.63550007 13948318
0.037676059 0.015171885 0.63499999 14014113
0.040347058 0.012754478 0.63800001 13948065
0.058407109 0.017674457 0.63600004 14342308
0.068112165 0.012674512 0.634 13619100
0.18583609 0.011869793 0.63500005 13221780
-0.30178031 0.029385664 0.63900006 8421506
-0.2937755 0.029374164 0.63875002 8618374
-0.285348 0.029373117 0.63872725 8618372
-0.27132645 0.029385664 0.63900006 8946567
-0.2641128 0.028490318 0.6386472 8684165
-0.25464553 0.027916478 0.63811636 8684678
-0.24531214 0.02765595 0.63814837 8684421
-0.2354859 0.027997809 0.63842016 8487558
-0.22736219 0.029385662 0.63900006 8357000
-0.17203453 0.028691076 0.63833338 8225667
-0.16441326 0.026500653 0.63552946 8160132
-0.15895031 0.02252711 0.63309085 8094852
-0.040849455 0.021209091 0.63050008 13158809
-0.037811045 0.021123905 0.63040006 12501390
0.0054831202 0.020898627 0.63350004 14145954
0.013974046 0.023191599 0.63392311 14277796
0.023568276 0.023751598 0.63275003 14737320
0.032933153 0.022950849 0.63559997 15000748
0.045846131 0.022420889 0.63000005 14934697
0.20320001 0.029385664 0.63900006 12103301
0.21565843 0.029385662 0.639 8422783
0.22538972 0.029355004 0.63833332 8750212
0.2362038 0.028755033 0.63840926 8553090
0.24442129 0.028838547 0.63859087 8618625
0.25137249 0.029385664 0.63900006 8749701
0.26655987 0.02938566 0.639 8553348
0.27587083 0.029379088 0.63885719 9077888
0.2850886 0.0291177 0.63833344 9077891
0.29304987 0.029367264 0.63859999 8946559
-0.35238308 0.034765035 0.6367318 8748160
-0.34524131 0.036170151 0.63666695 8814210
-0.33472201 0.035645988 0.63725573 9011587
-0.32488972 0.035722218 0.63717628 9012100
-0.31480089 0.035848804 0.63685572 8880773
-0.30517054 0.035593919 0.63696849 8880773
-0.29517141 0.035114542 0.63655257 8880772
-0.28513059 0.035066456 0.636558 8749702
-0.27531159 0.0353425 0.63767004 8749958
-0.26513937 0.03548361 0.63771611 8815751
-0.25506887 0.035054784 0.6364249 8815751
-0.24519847 0.03509308 0.63644087 8684678
-0.23532295 0.034948334 0.63665468 8750215
-0.22500814 0.03487803 0.63601792 8619143
-0.2147429 0.035497837 0.63604921 8488326
-0.20475577 0.035253648 0.63649529 8488326
-0.19500791 0.0356571 0.63648957 8291718
-0.18494865 0.03556117 0.63673407 8226182
-0.17510657 0.035056461 0.635041 8160389
-0.16714835 0.032368086 0.63240016 8160132
0.20568578 0.035553683 0.63576257 9801855
0.2151019 0.035118718 0.63653719 8684674
0.22514941 0.03527483 0.63641137 8619396
0.23496747 0.035033479 0.6356883 8619140
0.24495108 0.034963276 0.63625991 8553348
0.25501269 0.035116002 0.63678205 8684421
0.26474458 0.035050135 0.63575709 8749955
0.2750468 0.035011694 0.6354745 8946561
0.28510499 0.034968629 0.63521689 8946307
0.29500622 0.035029177 0.63589346 9012355
0.30480111 0.035308111 0.63610786 9012099
0.31068578 0.032932702 0.63800001 9142915
-0.35089186 0.041276745 0.63214284 8945540
-0.34477282 0.042655043 0.63216913 8945796
-0.33490619 0.043594677 0.63291657 9011332
-0.32533514 0.042968106 0.63250786 8946052
-0.31523025 0.04222868 0.63188237 8881029
-0.30475387 0.04217596 0.63203776 8946308
-0.29503 0.042344049 0.63185465 8946565
-0.28502682 0.042119514 0.63168621 8881030
-0.27504474 0.042365208 0.63246036 8749957
-0.26532647 0.04266857 0.63281661 8815494
-0.25509495 0.042121716 0.63226539 8815750
-0.24485919 0.04190838 0.63208181 8618630
-0.2352735 0.041504178 0.63161778 8684164
-0.22513068 0.040569335 0.63073683 8421764
-0.21473213 0.040718835 0.63076198 8356484
-0.20536201 0.041519731 0.63111758 8356998
-0.19487958 0.041595094 0.63122731 8160132
-0.18525246 0.041977562 0.63126087 8160389
-0.17694464 0.041136257 0.63070011 8094598
0.2064169 0.04095424 0.63168764 9210751
0.21528073 0.041797027 0.63160473 8618879
0.22466353 0.041569404 0.63146359 8619139
0.23506142 0.041550469 0.63123691 8553093
0.24503772 0.042470682 0.63181365 8684676
0.2547707 0.042035513 0.631827 8815492
0.26517895 0.041283242 0.63141036 8815492
0.27533925 0.04132675 0.63111126 8947077
0.28544384 0.041668795 0.63132513 9012357
0.29512376 0.042009708 0.63157159 9012099
0.30401015 0.042299226 0.63131911 9077637
-0.13183378 -0.0024088963 0.64462507 12698005
-0.12589358 -0.0041663083 0.64400005 12171924
-0.11340004 -0.0051345234 0.64541662 12895639
-0.10527613 -0.0057095448 0.64471424 12895895
-0.095946267 -0.0052737324 0.64253849 12961431
-0.083960429 -0.007223546 0.64436364 12961434
-0.074755765 -0.0082075195 0.64500004 12172949
-0.06596721 -0.0075393603 0.64286673 12304274
-0.053441081 -0.0074959509 0.64400011 11777935
-0.045374837 -0.007673441 0.64473343 10858126
-0.036685325 -0.0052142856 0.64520007 12830612
-0.025402723 -0.0044296863 0.64416671 12831126
-0.017866565 -0.0021957492 0.64400005 13027989
0.057783894 -0.0047313198 0.64750004 13554856
0.064919218 -0.006220513 0.64480001 12107159
0.075168498 -0.0069514979 0.64500004 12238747
0.085609421 -0.0079959966 0.64413339 13159585
0.094263628 -0.0080126794 0.64526671 12961948
0.10505913 -0.0060721147 0.64456254 12895892
0.11493242 -0.0040536229 0.64211768 12697997
0.12454553 -0.0037558323 0.64400005 12763538
0.13493209 -0.0023918096 0.64429408 12369046
0.1450717 -0.0012121946 0.64388239 11645323
0.15486106 -0.00051947858 0.64520001 10855812
0.16154753 -0.00052213558 0.64850003 8619386
-0.15519767 0.0061930455 0.64560002 9081222
-0.14466979 0.0022699132 0.6445834 12697750
-0.13657853 0.0011496234 0.64066672 12763280
-0.025770018 0.0090009337 0.6463334 13751713
-0.011758086 0.0017166346 0.64566672 13093526
-0.0059885802 0.0068566771 0.64499998 13290904
0.044006292 0.0028253279 0.64300001 13750684
0.070640549 0.0028209339 0.64200002 13422491
0.16521485 0.0015979229 0.64286679 8948083
0.17404687 0.0043217521 0.64522225 11841420
0.18430865 0.0072653806 0.64470589 9210234
0.19045943 0.0095631722 0.64649999 8685696
-0.36049068 0.019722844 0.64900005 8617343
-0.35747334 0.019707648 0.64850008 8814209
-0.33330417 0.019500557 0.64862502 8749185
-0.32521883 0.01957904 0.64853853 8749184
-0.31758976 0.019722844 0.64900011 8880516
-0.30423394 0.019709338 0.64855564 8815493
-0.29510075 0.019710332 0.64858836 8880516
-0.2848691 0.019611655 0.64826316 8749701
-0.27462184 0.018865095 0.64761293 8749701
-0.26502243 0.018749202 0.64705706 8749958
-0.25510925 0.018470874 0.64702463 8815751
-0.24474671 0.018346114 0.64620954 8618885
-0.23495148 0.018205564 0.64621288 8684678
-0.22509797 0.018705858 0.64679497 8422277
-0.21440406 0.018326588 0.64715916 8488326
-0.20511556 0.01847293 0.64707315 8488326
-0.19489245 0.018541774 0.64757502 8226181
-0.18510722 0.018039737 0.64688462 8357510
-0.17489406 0.017790895 0.64664918 8226181
-0.1653575 0.016310213 0.64463639 8226694
-0.15900552 0.012398522 0.64100003 8357510
-0.022864528 0.011188715 0.64333338 13883040
-0.014160092 0.012847836 0.64280003 14013857
-0.0049371244 0.014335856 0.64472729 13816734
0.0046539349 0.017045027 0.64465523 13882526
0.011901006 0.019233337 0.64675003 14014111
0.034935091 0.014580691 0.64540005 14013857
0.052771065 0.018007936 0.648 14474407
0.068756767 0.011130742 0.64000005 13619100
0.18850639 0.012814971 0.64100003 12564623
0.19271705 0.014289049 0.64730006 12301456
0.20619954 0.01879142 0.64823079 8816770
0.2146713 0.018927695 0.64779991 8619137
0.22598946 0.019457949 0.64821428 8685187
0.23593496 0.019056916 0.64762956 8684675
0.24506001 0.018403457 0.64715916 8684417
0.25518593 0.018652612 0.64734203 8683905
0.26489875 0.018996874 0.64770365 8815233
0.2747522 0.018708739 0.64800006 8485750
0.2845479 0.018744012 0.64779425 8486263
0.29473323 0.018549113 0.64786494 8814970
0.30370077 0.019385941 0.64831251 9077633
-0.35431573 0.02494147 0.64434779 8616831
-0.3454977 0.025805343 0.64472276 8748416
-0.33507383 0.025634158 0.64426219 8880001
-0.32499129 0.025474785 0.64416987 8814722
-0.31493866 0.025382772 0.64386749 8814980
-0.30514312 0.025332496 0.64367306 8814979
-0.29505524 0.025064668 0.64305145 8814979
-0.28506684 0.025018115 0.64291555 8749445
-0.27517864 0.025246985 0.64222318 8749701
-0.2652632 0.024643376 0.6418587 8749958
-0.25539806 0.023297725 0.64188719 8749701
-0.24508053 0.022859931 0.64149028 8684421
-0.23476316 0.023446295 0.64115131 8553349
-0.22491455 0.0250265 0.64160711 8487813
-0.21508716 0.025370181 0.64204639 8422534
-0.20496254 0.025308231 0.64202654 8422534
-0.19498637 0.025380978 0.64274287 8291718
-0.18507193 0.025418654 0.64243656 8226182
-0.17573954 0.024830012 0.64199996 8226181
-0.1671609 0.022718346 0.64124244 8226182
0.0080448668 0.021146044 0.64100003 14080162
0.015706483 0.02216259 0.6429286 14277540
0.022984495 0.022582226 0.64399999 14605991
0.034807313 0.021491909 0.64300007 14737578
0.046496328 0.021332985 0.64666671 14606249
0.19917011 0.021360476 0.64750004 12892553
0.20562427 0.025092499 0.64436841 10065282
0.21477515 0.025186183 0.64319402 8684929
0.22495511 0.025144793 0.64338827 8619396
0.23469622 0.024536539 0.6427021 8750209
0.24516857 0.024273522 0.64209598 8684418
0.25485164 0.025183262 0.64242542 8618627
0.26480258 0.02495061 0.64284688 8749441
0.27471516 0.024802886 0.64285403 8880766
0.28462246 0.024395186 0.6424771 8749436
0.29481837 0.024816226 0.64243454 9077374
0.30485111 0.025577988 0.64343137 8946561
0.31246188 0.024877809 0.64517027 9012099
-0.35249692 0.031428114 0.64000005 8945026
-0.34472194 0.031515356 0.64008349 8748417
-0.3346951 0.031095376 0.63999999 8880260
-0.32429689 0.031095378 0.64000005 8814723
-0.31545833 0.031199358 0.64000005 8946567
-0.30512631 0.031095374 0.63999999 8683651
-0.2728602 0.031649943 0.64000005 8684422
-0.26683912 0.031808391 0.64000005 8815494
-0.22073036 0.031095371 0.64000005 8882057
-0.2155728 0.031095374 0.63999999 8553350
-0.20509139 0.031095371 0.64000005 8488583
-0.19375435 0.031451885 0.63999999 8291462
-0.18533851 0.031095374 0.63999999 8291717
0.20692591 0.031523447 0.64025003 9012349
0.21100473 0.031095371 0.64000005 9275012
0.22597823 0.031095371 0.64000005 8554373
0.3073816 0.031095371 0.64000005 8946819
0.31165975 0.031095371 0.64000005 8880258
-0.084814653 -0.010773169 0.65680003 7699050
-0.074443564 -0.010755947 0.6557501 7371112
-0.065897472 -0.010798319 0.65833336 7700850
-0.054286104 -0.01077973 0.65720004 7635837
-0.04505213 -0.010768994 0.65654552 7505021
0.079363532 -0.010809254 0.65900004 7438712
0.085675329 -0.010741593 0.65487504 7372401
0.094228424 -0.010745694 0.65512502 7634803
0.10163397 -0.010809254 0.65900004 7832441
-0.15430254 -0.00052998576 0.65825003 8095364
-0.14502041 -0.001170618 0.65643752 10330254
-0.13507394 -0.0045347163 0.65505886 10329995
-0.12544404 -0.0077943034 0.65725005 8949120
-0.11471012 -0.0078895707 0.65631253 10659210
-0.10572017 -0.0080570253 0.65494734 10528134
-0.096110716 -0.0087838834 0.6540001 10198916
-0.085404873 -0.0090216072 0.65360004 12501661
-0.074560925 -0.009013325 0.65300006 11975830
-0.063860938 -0.0089847995 0.65093333 9739904
-0.054977085 -0.0089893993 0.65126675 7831659
-0.043989316 -0.0089910273 0.65138465 7766903
-0.034516893 -0.0079890741 0.65446156 8621435
-0.0253314 -0.0063853762 0.65433335 9344888
-0.015028263 -0.002753655 0.65507692 13159322
-0.0070198714 -0.00053024455 0.65857142 13159318
0.0048380275 -0.00053018704 0.65850002 13422747
0.015962852 -0.00065243716 0.65835714 13489055
0.025068637 -0.00053052761 0.65892309 13554591
0.031396434 -0.0005305896 0.65900004 13554592
0.058270797 -0.0056182989 0.65300006 13620651
0.064884901 -0.0077714482 0.65549999 7437421
0.074662857 -0.0078148488 0.65428579 10199685
0.084124595 -0.0075421063 0.65437502 13224864
0.095190614 -0.0088390931 0.65400004 12699035
0.10479802 -0.0081918603 0.65507144 10725251
0.11529022 -0.0058245966 0.65358829 12435347
0.12504376 -0.005526301 0.65540004 9606521
0.1343777 -0.0041711479 0.65399998 9277305
0.14470902 -0.0030163291 0.65423077 7961963
0.1552569 -0.0022351888 0.65649998 8028535
0.16534291 -0.00052663707 0.65409094 8357499
0.17101496 -0.0005305896 0.65900004 8423296
-0.36311111 0.0084340675 0.65796572 8485499
-0.35477608 0.0085641695 0.65834314 8813949
-0.34438354 0.0076816133 0.65820014 8682880
-0.33501908 0.007795976 0.6580568 8683392
-0.32583037 0.0085444087 0.65830326 8683390
-0.31552252 0.0096106073 0.65861541 8617597
-0.30464879 0.0093359658 0.65871441 8748930
-0.29483923 0.0093160979 0.65875018 8814980
-0.28416672 0.0082297744 0.65852958 8815237
-0.27513716 0.0080608753 0.65819597 8815494
-0.26503754 0.0079458263 0.65780872 8750214
-0.25559303 0.0084002595 0.65788925 8750214
-0.24507126 0.0090851299 0.65806907 8487299
-0.23489887 0.0096446779 0.65810531 8553350
-0.22388829 0.008260685 0.65811133 8422791
-0.21497816 0.0079392651 0.6570819 8422533
-0.20517507 0.0078477524 0.65703797 8488327
-0.19528873 0.0079460153 0.65712982 8291204
-0.18476361 0.008863912 0.65705562 8357253
-0.17461953 0.008726947 0.65712905 8291974
-0.1650916 0.0066777137 0.65553862 8292229
-0.15554924 0.0024839838 0.65368181 8423301
-0.1476365 0.0011690629 0.65149999 11908241
-0.025118107 0.00689269 0.65445465 13290650
-0.015079745 0.0055514919 0.65623343 13224598
-0.0045985798 0.0051713032 0.65549356 13290647
0.0048405221 0.0058741993 0.65603316 13422234
0.015108595 0.0055165207 0.65568846 13553819
0.02527095 0.0054343157 0.65562904 13685149
0.034942683 0.0057819416 0.65608031 13750685
0.04662735 0.0067448262 0.65636843 13685149
0.051478423 0.0064745159 0.65730006 13684893
0.071960934 0.001173549 0.65400004 13356698
0.16880849 0.0011672685 0.65050006 8619643
0.175374 0.0024846459 0.65484619 9671810
0.1851282 0.0041881707 0.65517151 8685436
0.19432929 0.0073291957 0.65595132 8750976
0.20525953 0.0082448088 0.65766692 8554116
0.21452464 0.0085247941 0.65800023 8553860
0.2254243 0.008919226 0.6583479 8619394
0.23526698 0.0085047157 0.65805143 8684672
0.24494354 0.0081523452 0.65760034 8750209
0.25504786 0.0072758622 0.65768689 8749695
0.26489124 0.0073113851 0.65764737 8683901
0.27521628 0.0077977511 0.65758204 8552056
0.28506246 0.0080481432 0.65751004 8551541
0.2950246 0.0080788936 0.65740407 8748664
0.30481139 0.0079477113 0.65752959 9077631
0.31444886 0.0082942331 0.65802312 9274240
0.32052258 0.0087094139 0.65820009 9011581
-0.36199254 0.01391724 0.65390635 8617085
-0.35486656 0.01532069 0.65373397 8682622
-0.34512004 0.015757602 0.65397048 8682879
-0.33515668 0.015230271 0.65323919 8748671
-0.32500696 0.014877188 0.65354085 8683135
-0.3150093 0.015521525 0.65427887 8683393
-0.30503199 0.015090221 0.6543628 8814723
-0.2949737 0.014773994 0.65436286 8814980
-0.28509116 0.014742532 0.65387344 8749701
-0.27498904 0.014085776 0.65321636 8815238
-0.26493615 0.013873261 0.65303046 8749957
-0.25511369 0.013579935 0.65340018 8684421
-0.24515745 0.013598992 0.65311319 8618628
-0.23499818 0.013448016 0.65344262 8684678
-0.22501612 0.01388553 0.65299976 8488326
-0.21539038 0.013623273 0.65241408 8488326
-0.20502794 0.013585512 0.65232348 8291461
-0.19532551 0.013758707 0.6520797 8291461
-0.18503226 0.0130311 0.65198141 8291718
-0.17542277 0.01282877 0.65247929 8291974
-0.16850506 0.012436933 0.65033334 8291718
-0.012128746 0.011313355 0.65050006 13816479
-0.0037299218 0.01251441 0.65289479 13553562
0.0053845569 0.01408981 0.6536507 13619356
0.015140467 0.015367274 0.65426701 13816990
0.025079954 0.01552421 0.65434915 14079649
0.035345495 0.015302189 0.65513104 14145443
0.046500925 0.015465006 0.65503567 14145444
0.053136788 0.015327141 0.6550625 14210980
0.060335647 0.013129113 0.65700006 14079393
0.19748332 0.014427687 0.65390009 10723463
0.20460199 0.014574608 0.65312487 8816515
0.21517281 0.014755044 0.65343601 8619396
0.22496171 0.015162944 0.65419811 8685188
0.23479246 0.014472646 0.65359557 8619395
0.2449898 0.013667672 0.65256971 8618882
0.25505051 0.01372064 0.65234345 8815490
0.26519179 0.0141726 0.65262675 8749952
0.27503911 0.013962288 0.65268058 8486007
0.28528675 0.014201331 0.65250689 8486005
0.29497471 0.013829221 0.6527015 8748663
0.30517033 0.014764215 0.65290236 9077118
0.31468487 0.015301372 0.65371269 9077377
-0.35090786 0.021442948 0.65000004 8682106
-0.34511456 0.021442948 0.65000004 8683134
-0.33590752 0.021456143 0.65040004 8682880
0.01694751 0.021516256 0.65222228 14211748
0.023618855 0.021550162 0.65325004 14540454
0.034052279 0.02253003 0.65357149 14935212
0.046284813 0.021497929 0.6516667 14540712
0.20093778 0.021459442 0.65050006 13682072
0.31483972 0.021442948 0.65000004 9012354
-0.13217631 -0.010948676 0.66750002 8094330
-0.12495341 -0.010924071 0.66599995 8291451
-0.11496855 -0.01093038 0.6663847 8094585
-0.10490069 -0.011522635 0.66511774 7701116
-0.094815247 -0.011677369 0.6638183 7503478
-0.084047072 -0.012045939 0.6642223 7700856
-0.074519426 -0.011990671 0.66442108 7569525
-0.064807065 -0.011945026 0.66473329 7438969
-0.05522481 -0.011958876 0.66376197 7504507
-0.045100529 -0.011929085 0.66294444 7438972
-0.035821069 -0.010935427 0.66669238 7438975
0.02665554 -0.010973279 0.66899997 7373436
0.068291858 -0.010956877 0.66800004 7635838
0.074598826 -0.010900639 0.66457146 7635835
0.084808186 -0.011696354 0.66509098 7504248
0.09510646 -0.011575375 0.66366673 7635318
0.10380529 -0.011326327 0.66615391 7766906
-0.37104431 -0.003432014 0.66800004 8551036
-0.36468366 -0.0024349478 0.6663208 8682366
-0.35453027 -0.0031825115 0.66639352 8748414
-0.34513247 -0.0036016535 0.66583568 8748416
-0.33541289 -0.0028402959 0.66591048 8682879
-0.32496578 -0.0033843331 0.66604453 8683136
-0.31475255 -0.0039586285 0.66475308 8617856
-0.30486068 -0.0036522071 0.66465002 8749186
-0.29509345 -0.0037025681 0.66545677 8683650
-0.28507313 -0.0039835521 0.66565877 8815236
-0.27483365 -0.0042632264 0.66535497 8881285
-0.26485157 -0.0046281465 0.66568011 8750213
-0.25506642 -0.0039857943 0.66601121 8684678
-0.24514991 -0.0033730103 0.66691554 8553349
-0.23481295 -0.0034713331 0.66688728 8422278
-0.22480978 -0.0040480737 0.66603655 8553607
-0.21513736 -0.0038152901 0.66574711 8553863
-0.20501685 -0.0033865187 0.66625708 8488583
-0.19503228 -0.0031412819 0.6668613 8357510
-0.18500464 -0.0028620083 0.66726136 8291973
-0.17524114 -0.0023457315 0.667449 8357765
-0.16465104 -0.0038233905 0.66678947 8226438
-0.15518685 -0.003636122 0.66547376 8226437
-0.14538254 -0.0041332911 0.66484219 8291969
-0.13563417 -0.0077350605 0.66433334 8160383
-0.12514168 -0.0087295417 0.66356254 8160121
-0.11618713 -0.008852534 0.66208333 8554616
-0.10431894 -0.0084830765 0.66470003 9804671
-0.098212026 -0.0092019653 0.66666669 9016188
-0.08590734 -0.0091824112 0.66525006 12370591
-0.07762225 -0.0091237491 0.66100001 12436382
-0.033703301 -0.0087965513 0.66240001 7964797
-0.024030395 -0.0054891282 0.66476667 10397574
-0.014989141 -0.0043811207 0.66483337 11712913
-0.0047014495 -0.0039715641 0.6647144 10989193
0.0049831728 -0.0050003584 0.66447347 9543042
0.015179661 -0.0054610204 0.6639781 9082497
0.025306839 -0.0055004596 0.66387182 8951167
0.033941451 -0.0050475318 0.66517437 9477252
0.0431589 -0.0029981963 0.66650003 10791045
0.055430483 -0.0046896427 0.66580003 10725513
0.065034427 -0.0052843392 0.66575003 10528907
0.074395426 -0.0045988173 0.66591311 12896153
0.084482908 -0.0077169305 0.66515392 13290656
0.10763379 -0.0091691017 0.66428572 7830371
0.11516745 -0.0075821062 0.66484618 8093803
0.12590669 -0.0072623976 0.66737509 7766133
0.1348867 -0.0063310959 0.66543478 7897721
0.14526467 -0.004516385 0.66330773 8226170
0.15448895 -0.0037828761 0.66575003 8226687
0.16566196 -0.0032222972 0.66489655 8029052
0.17526136 -0.0023573253 0.66648775 8226174
0.1856432 -0.0025909459 0.66673344 8423040
0.19509572 -0.0033631555 0.6658631 8422014
0.20492125 -0.0031796617 0.66620004 8619649
0.21508896 -0.0032237328 0.66581696 8619137
0.22505029 -0.0038829518 0.66527569 8619394
0.23477836 -0.0038498715 0.66517496 8684927
0.24503525 -0.003580445 0.66546142 8684415
0.2550087 -0.0039005675 0.66490704 8815743
0.26505432 -0.0041684825 0.66461933 8749694
0.2749514 -0.004568073 0.66534758 8881024
0.28472334 -0.00402789 0.66611391 8881538
0.29503882 -0.002713762 0.66647458 8881026
0.30503157 -0.0028121632 0.66621315 8946564
0.31467092 -0.0026674524 0.66628081 8946049
0.32267433 -0.0026914519 0.66679311 9011582
-0.3640888 0.0033268756 0.66184896 8617086
-0.35504264 0.0039698556 0.66118169 8748158
-0.345469 0.0039115655 0.66104752 8682877
-0.33491746 0.0032595398 0.66116983 8552063
-0.3246637 0.0043084156 0.66112942 8617599
-0.31495431 0.0047757765 0.66081792 8683136
-0.30508369 0.0044985218 0.6606276 8749187
-0.29506162 0.0043483377 0.66117048 8749186
-0.28549635 0.0040126219 0.66106147 8684163
-0.2750909 0.0034552519 0.66084731 8881286
-0.26494527 0.0033163619 0.66077572 8684165
-0.25454584 0.0034135974 0.66126561 8553093
-0.24492306 0.0042907218 0.66213381 8553093
-0.23480383 0.0045291227 0.66255146 8487814
-0.22522295 0.0037629248 0.66136187 8553607
-0.21506985 0.003189866 0.66114813 8488070
-0.20495579 0.0030333048 0.66132069 8422534
-0.19467379 0.0029692408 0.66192579 8357253
-0.18502665 0.0037776669 0.66231513 8291460
-0.17532597 0.0038694502 0.66277963 8357765
-0.16746303 0.0032318288 0.66147608 8291973
-0.1579513 0.0011861098 0.66100001 8358022
-0.022622181 0.0029017224 0.66058332 13092755
-0.0020122733 0.0011843154 0.66000003 13159319
0.0047558253 0.003281594 0.66016656 13356697
0.011713408 0.0011843154 0.66000003 13422489
0.037449062 0.0011843154 0.66000003 13619870
0.043823313 0.0011864089 0.66116673 13619100
0.059207767 0.0020510508 0.66350007 13618587
0.063383691 0.0039448487 0.66380006 13618843
0.071930423 0.0016276615 0.66550004 13356186
0.17799658 0.0017627372 0.66266674 8619387
0.184477 0.0016729669 0.66343999 8488573
0.19590755 0.0032541601 0.66130602 8684930
0.20488501 0.0035968972 0.66148371 8685187
0.21510413 0.0037091838 0.66104549 8619139
0.22471224 0.0044958699 0.66073799 8619138
0.23475116 0.003771937 0.66065198 8815745
0.24509689 0.0031727513 0.66073668 8684670
0.25480634 0.0023000208 0.66027486 8749951
0.26564312 0.0022999309 0.66022485 8683900
0.27514541 0.00286247 0.66063637 8683899
0.2848455 0.0029349588 0.66096216 8749179
0.29487288 0.003097319 0.66113198 8880509
0.3049162 0.0028707313 0.66111314 9077376
0.31526145 0.0032949967 0.66133332 9208702
0.32158896 0.0033966175 0.66190481 9339775
-0.31341368 0.011478577 0.66000003 8815235
0.22531933 0.011478577 0.66000003 8618879
-0.25006703 -0.021727916 0.67900002 8618883
-0.24366853 -0.021948555 0.67899996 8421760
-0.23581041 -0.021999471 0.67899996 8421761
-0.22888578 -0.021727916 0.67900002 8487293
-0.37353382 -0.013019898 0.67754066 8616829
-0.36482081 -0.012511222 0.67728215 8616828
-0.35480577 -0.01353415 0.67665464 8617084
-0.34486535 -0.013746911 0.67623955 8617597
-0.3351315 -0.013060454 0.67685205 8617343
-0.32497197 -0.012927783 0.67642015 8552064
-0.31456578 -0.013160414 0.67607021 8683392
-0.30500433 -0.013205864 0.67587048 8683648
-0.29501534 -0.013491732 0.67583352 8683650
-0.28471226 -0.013809298 0.67532855 8749700
-0.27470455 -0.014629083 0.67480755 8881029
-0.26492682 -0.014604301 0.67464381 8684677
-0.25488019 -0.014868119 0.6751889 8618885
-0.24494421 -0.015253625 0.67535365 8684677
-0.23502515 -0.015322107 0.6755501 8487556
-0.22514138 -0.015006784 0.67571759 8487555
-0.215075 -0.014307772 0.67535418 8356995
-0.20501688 -0.01439357 0.6757592 8291460
-0.19471593 -0.014839529 0.67594606 8225924
-0.18490681 -0.01487609 0.67613786 8291460
-0.17493589 -0.014717069 0.67631841 8291716
-0.16497815 -0.014878239 0.6768024 8160388
-0.15532623 -0.013703016 0.67732352 8291972
-0.14528316 -0.012840418 0.67757469 8160641
-0.13492164 -0.012299525 0.67506081 8094075
-0.12504774 -0.012187451 0.6741786 8160378
-0.11442118 -0.013137407 0.67464286 7832186
-0.10492481 -0.013710791 0.67614645 7504509
-0.095655002 -0.012633264 0.6771667 7569530
-0.084534071 -0.01291234 0.67468423 7569529
-0.075474538 -0.013950892 0.67410004 7307387
-0.065138862 -0.014705837 0.67647374 7438974
-0.055129364 -0.01499428 0.6758889 7373181
-0.045562591 -0.014116603 0.67360002 7438972
-0.035149064 -0.01255324 0.6759584 7373437
-0.024408864 -0.012449475 0.67644197 7504765
-0.015231257 -0.012663038 0.6775611 7373693
-0.0048013269 -0.013092807 0.67679638 7505019
0.0050928872 -0.014475903 0.67531031 7439228
0.01556824 -0.014776144 0.67478502 7307899
0.025127005 -0.015463024 0.67464286 7438970
0.034515146 -0.014204987 0.67527157 7307383
0.045033824 -0.012835576 0.67715681 7306872
0.054805696 -0.012753659 0.67753488 7504250
0.065054551 -0.013632356 0.67648488 7307386
0.075274035 -0.01474814 0.6762405 7504508
0.084996916 -0.016038079 0.67572862 7372920
0.0949082 -0.01647752 0.67556769 7635580
0.10495127 -0.01553821 0.67525405 7701372
0.11489639 -0.013853583 0.67609227 7635837
0.12515222 -0.013976515 0.67600024 7766908
0.13503142 -0.015019825 0.67544574 7766908
0.14445907 -0.014484313 0.67674685 7963774
0.15497227 -0.01292539 0.67822474 7832446
0.16500518 -0.012295487 0.67789745 7897724
0.17487451 -0.012487583 0.67795026 8160381
0.1848606 -0.012733313 0.67770845 8226174
0.19481179 -0.013156527 0.67645782 8356478
0.20478861 -0.013453235 0.67637092 8553858
0.21498528 -0.013714788 0.67654306 8750722
0.22501417 -0.01423189 0.67577505 8816256
0.23496504 -0.014785266 0.67583138 8684929
0.24493396 -0.01509162 0.67610896 8749951
0.25467461 -0.014319398 0.67589909 8815744
0.26519454 -0.0140584 0.67553103 8684158
0.27523667 -0.015167435 0.67511612 8815488
0.28499618 -0.015167136 0.67547792 8815491
0.29471529 -0.014375524 0.67632866 8881026
0.30494928 -0.013444347 0.67693466 8814977
0.31501731 -0.013200563 0.67703801 8814975
0.32488087 -0.013255848 0.67701733 8749183
0.33065149 -0.015550058 0.67900002 9340292
-0.37235326 -0.0074132183 0.67326921 8682367
-0.36563542 -0.0072233425 0.67217797 8682623
-0.35558644 -0.0081658596 0.67134219 8682622
-0.34389111 -0.0083616059 0.67110354 8682879
-0.33471382 -0.0079857605 0.67176193 8814209
-0.32552201 -0.0084286556 0.67123991 8617599
-0.3150163 -0.0091635706 0.67052633 8683649
-0.30505118 -0.0085923523 0.67107701 8683906
-0.29480445 -0.0088043055 0.67078263 8683906
-0.28524104 -0.0092534954 0.67039996 8946566
-0.27636144 -0.0092479745 0.67000002 8881285
-0.26504034 -0.0092479745 0.67000002 8750213
-0.25384536 -0.0084231915 0.67033333 8619142
-0.24458265 -0.008131491 0.67079425 8553862
-0.23541416 -0.0083523262 0.67037928 8422277
-0.22542195 -0.0087066805 0.67063159 8488070
-0.21392407 -0.0081845485 0.67061532 8488326
-0.20459723 -0.0083313202 0.67062503 8357509
-0.19511685 -0.0083046444 0.67048484 8225924
-0.18484223 -0.0079628769 0.67081404 8226181
-0.17456323 -0.0072672772 0.6711455 8160644
-0.16499206 -0.0074876724 0.67170471 8292230
-0.15484652 -0.0078534205 0.6727435 8226179
-0.14567703 -0.0081921294 0.67250013 8160641
-0.13887024 -0.0092548765 0.67050004 7962748
-0.10244245 -0.00927098 0.67166668 8290671
-0.094551295 -0.0079796659 0.67547059 11777940
-0.087000333 -0.0089832935 0.67640001 12633502
-0.032193806 -0.0088429553 0.67225003 7702135
-0.023809109 -0.0081779994 0.67231578 7964534
-0.014862185 -0.0078241481 0.67220002 8622466
-0.0061901789 -0.0084269149 0.6716451 7636091
0.0016148199 -0.0092479754 0.67000002 7439484
0.011020031 -0.0092479754 0.67000002 7571330
0.037060108 -0.0086745946 0.67053336 7438970
0.045475863 -0.0077184318 0.67277551 7503475
0.054930259 -0.0078217518 0.67397434 8556416
0.064512081 -0.0074935728 0.67314285 9410947
0.07368625 -0.0080753062 0.67113644 10068358
0.081559122 -0.0092479754 0.67000002 11777942
0.11601117 -0.0091693131 0.67218757 7897975
0.12533811 -0.0086433124 0.67128575 7832185
0.13580398 -0.0085971346 0.67016667 7766651
0.14548825 -0.0078101079 0.6721819 7898237
0.15535048 -0.0073818839 0.67429996 7832703
0.16460094 -0.0072415932 0.6728791 8029055
0.17531115 -0.0072341831 0.67266649 8291710
0.1847147 -0.0076421723 0.6722858 8226173
0.19472197 -0.0084763691 0.6710968 8290429
0.20514034 -0.0079710651 0.67128581 8554113
0.21453886 -0.0080595417 0.67161119 8619138
0.22388095 -0.0089369481 0.67040914 8882051
0.2353871 -0.0090063894 0.67052388 8750719
0.24513341 -0.0084861824 0.67092592 8750463
0.25437745 -0.0088235894 0.67080003 8749950
0.26370934 -0.0092488946 0.67006671 8881022
0.27438438 -0.0090031028 0.67028576 8684928
0.28583121 -0.0085286079 0.67105269 8881540
0.29526427 -0.0079064332 0.67136604 8946561
0.30463472 -0.0078263544 0.67175615 8946818
0.31514162 -0.0077958722 0.6718697 8945789
0.32413626 -0.0074872635 0.67190003 8945791
0.063365638 0.001204054 0.671 13356698
-0.38091782 -0.031003401 0.68900001 8419194
-0.3791267 -0.031003401 0.68900001 8616573
-0.36390239 -0.031003401 0.68900001 8747135
-0.35315579 -0.031003401 0.68900001 8682879
-0.34509584 -0.031003401 0.68900001 8748412
-0.33793148 -0.031003401 0.68899995 8682876
-0.30390063 -0.031003401 0.68900001 8617343
-0.29494509 -0.031003401 0.68900001 8880002
-0.2843377 -0.030990543 0.68871433 8749182
-0.2748158 -0.031495862 0.68857151 8487039
-0.26927271 -0.031003401 0.68899995 8290686
-0.25461629 -0.030984115 0.68857145 8487295
-0.24467932 -0.032134619 0.68762499 8487040
-0.2342159 -0.032809131 0.68716645 8421762
-0.22580719 -0.031838287 0.68767846 8487554
-0.21588098 -0.031003401 0.68900007 8619396
-0.20410351 -0.032487471 0.6884737 8290432
-0.19482142 -0.03446734 0.6874187 8290946
-0.18520299 -0.03307746 0.68739998 8224896
-0.1765452 -0.03145916 0.68827283 8159872
-0.16419502 -0.031003401 0.68900007 8291203
-0.15441856 -0.031286921 0.68866676 8226436
-0.14457938 -0.031082293 0.68841177 8292225
-0.13505578 -0.031483002 0.68828577 7963770
-0.12513362 -0.031570438 0.68833321 7832443
-0.1154551 -0.031165889 0.68842107 7701117
-0.1047017 -0.031192943 0.68852949 7372411
-0.094781153 -0.03174711 0.68785179 7373181
-0.085284621 -0.032179188 0.68761539 7438461
-0.07497485 -0.032234814 0.68754995 7438717
-0.064880379 -0.032984491 0.68691099 7372921
-0.054854136 -0.032883145 0.68706024 7241594
-0.045060657 -0.032658212 0.68755776 7241338
-0.035919093 -0.032108836 0.68836659 7241592
-0.025367448 -0.031338997 0.68850005 7241849
-0.014292616 -0.031773996 0.68804544 7110265
-0.0048606037 -0.031672403 0.68830431 7176569
0.0044499543 -0.031973399 0.68827993 7242106
0.015370443 -0.031537678 0.68831581 7373175
0.024964243 -0.032135472 0.68829989 7241591
0.03491734 -0.031571817 0.68837029 7241846
0.044791818 -0.031330798 0.68881255 7175798
0.054308053 -0.030997775 0.68887502 7241335
0.065299943 -0.03127192 0.68833345 7438713
0.075026542 -0.03147601 0.68835998 7372664
0.08466547 -0.031511236 0.68817389 7503994
0.094720334 -0.031527437 0.68791997 7438201
0.10563991 -0.032259107 0.68780476 7503993
0.11497392 -0.032503549 0.68754983 7569788
0.12476631 -0.032385297 0.68788886 7569531
0.13496079 -0.031914175 0.68765712 7766397
0.14461845 -0.031853177 0.68799996 7832190
0.15546106 -0.0314577 0.68795991 7963775
0.16471383 -0.031363893 0.68863159 7831419
0.17074022 -0.031003401 0.68900001 7961205
0.18698162 -0.030986525 0.68862504 8290686
0.19501844 -0.031740032 0.68796873 8356735
0.205158 -0.031861514 0.68817651 8356479
0.21493131 -0.031762205 0.68818516 8422273
0.22512969 -0.031686328 0.68826658 8422271
0.23514988 -0.031655543 0.68819225 8487550
0.24506688 -0.032140948 0.68776917 8553343
0.25491726 -0.032401241 0.68737787 8618365
0.26459903 -0.032070354 0.68832242 8552057
0.27507383 -0.031073991 0.6884737 8815485
0.28584245 -0.031529374 0.68825012 8881023
0.29499516 -0.031743728 0.68777776 8946303
0.30510268 -0.031606287 0.688353 8880509
0.31454158 -0.03186037 0.6881668 8814714
0.32416761 -0.031580433 0.68855566 8682871
0.33297029 -0.030988401 0.68866664 8683130
-0.38060406 -0.026551342 0.68700004 8682110
-0.37511823 -0.024284407 0.68585706 8616574
-0.36518094 -0.024030847 0.68576169 8551036
-0.35497963 -0.024139486 0.68520236 8682623
-0.34512699 -0.023935869 0.68527788 8682879
-0.3348771 -0.023862768 0.68614137 8683136
-0.32490376 -0.024009097 0.68675327 8683135
-0.31495672 -0.024631115 0.68639982 8683390
-0.30509681 -0.024420246 0.68623954 8617855
-0.29503188 -0.024224501 0.68590218 8749184
-0.28485096 -0.024334615 0.68550581 8814978
-0.27502975 -0.024479957 0.68476015 8749953
-0.26491708 -0.024662651 0.68536264 8552832
-0.25487676 -0.024961147 0.68472153 8553090
-0.24498539 -0.025786281 0.68347138 8553089
-0.23493321 -0.026013916 0.68326396 8553089
-0.22501951 -0.02514104 0.68363523 8487554
-0.2151185 -0.024584712 0.68478793 8356739
-0.20506211 -0.024627091 0.68463951 8225410
-0.19520558 -0.025002437 0.68406332 8159874
-0.18505345 -0.025070015 0.6839146 8160130
-0.17518179 -0.025248652 0.68435544 8028801
-0.16496354 -0.025076188 0.68459558 8160387
-0.15490761 -0.024662437 0.68428993 8094849
-0.14497186 -0.024773821 0.68460602 8160383
-0.13513759 -0.024340017 0.68425989 7832444
-0.1249244 -0.02462334 0.68459791 7832959
-0.1150483 -0.024691422 0.68499988 7570046
-0.10521079 -0.024463093 0.68479961 7570046
-0.094764203 -0.024679592 0.68497157 7438460
-0.084960215 -0.024486329 0.68461972 7504509
-0.075027674 -0.024572559 0.68436116 7372924
-0.065161072 -0.024541924 0.68349963 7438972
-0.055370994 -0.024534749 0.68329567 7372922
-0.044796702 -0.024580082 0.68460172 7242108
-0.035073623 -0.024625093 0.6858449 7307386
-0.025271507 -0.024628475 0.68589848 7438972
-0.014552586 -0.024592636 0.68489796 7307643
-0.0047541382 -0.024566464 0.68412209 7307899
0.0049599647 -0.024933545 0.68439996 7307899
0.014817228 -0.025137996 0.68453765 7373434
0.024495458 -0.025322217 0.68364102 7372919
0.035431925 -0.024749521 0.68442303 7372917
0.045131512 -0.024615033 0.68546689 7307125
0.054911852 -0.02460772 0.68524045 7372665
0.065130845 -0.024334243 0.68406004 7438973
0.074676566 -0.024998769 0.68402106 7438972
0.084997259 -0.025438417 0.68364441 7438458
0.095156036 -0.025111472 0.68360966 7438716
0.1048186 -0.025267264 0.68383515 7570043
0.11519851 -0.024512166 0.68382794 7701373
0.12498275 -0.02466383 0.68417394 7635322
0.13461697 -0.025309213 0.68332601 7766652
0.14522634 -0.024775868 0.68337756 7897982
0.15496291 -0.024817433 0.68454087 7832190
0.16500764 -0.024383683 0.68488234 7897724
0.17510316 -0.024722315 0.68568689 8422527
0.18502338 -0.024672892 0.68520188 8422013
0.19496767 -0.024400825 0.68451995 8422014
0.20488967 -0.024632391 0.68429112 8422529
0.21504767 -0.024682911 0.68424237 8553858
0.22498854 -0.024467897 0.68381989 8553602
0.23503767 -0.025010578 0.68370515 8619136
0.24499962 -0.02536349 0.68332154 8684415
0.25496134 -0.024855766 0.68306714 8618620
0.26487699 -0.024875708 0.68414128 8683643
0.27472481 -0.025060089 0.68435866 8815231
0.2850571 -0.025348732 0.68391001 8815233
0.29520833 -0.025017193 0.68414587 8946559
0.30515239 -0.024525495 0.68491989 8880765
0.31514621 -0.024538137 0.68531615 8814461
0.32492763 -0.024581971 0.6852175 8748154
0.33294442 -0.025161557 0.68514061 8748410
-0.37441692 -0.017062405 0.68129396 8616827
-0.36540586 -0.0169129 0.68174416 8682362
-0.35548753 -0.017378226 0.6814546 8682877
-0.3447096 -0.017696502 0.68115801 8683134
-0.3350417 -0.017491128 0.68153119 8683136
-0.32505456 -0.017393349 0.682028 8683393
-0.31535977 -0.017558411 0.68155998 8748927
-0.30542281 -0.01747313 0.68129629 8683648
-0.29552269 -0.017678905 0.68076003 8814978
-0.28631154 -0.017999537 0.68040001 8749441
-0.27429926 -0.019992214 0.68000001 9144200
-0.26493043 -0.019992214 0.68000001 8815237
-0.25679901 -0.019992214 0.68000001 8618627
-0.24689989 -0.019992214 0.68000001 8684677
-0.23408405 -0.019992214 0.68000001 8618627
-0.2224046 -0.019487156 0.67999995 8422533
-0.21508126 -0.018729568 0.67999995 8488326
-0.20592137 -0.019188713 0.67999989 8357509
-0.19451165 -0.019992216 0.67999989 8160131
-0.18547226 -0.019992214 0.68000001 8357254
-0.17442413 -0.019992216 0.67999989 8160131
-0.16514371 -0.019550288 0.67999995 8094595
-0.15428005 -0.018010857 0.68065226 8226434
-0.14482802 -0.016937533 0.68107688 8094846
-0.13492757 -0.01663341 0.68139982 7963515
-0.12515984 -0.01654209 0.6818912 7700085
-0.11574907 -0.016818041 0.68154526 7701374
-0.10467153 -0.017519893 0.68138701 7504511
-0.094748251 -0.016668951 0.68156081 7504254
-0.08568611 -0.016296033 0.6818822 7504253
-0.074928768 -0.017246719 0.68176311 7241595
-0.065077312 -0.017406194 0.68134493 7504766
-0.055191286 -0.017641103 0.68185717 7241593
-0.044410892 -0.017006086 0.68299991 7307901
-0.034943886 -0.016538355 0.68326658 7307644
-0.025600364 -0.016735008 0.68204236 7570302
-0.014201156 -0.016901197 0.6816591 7505022
-0.0055507477 -0.017368723 0.681077 7505278
0.0045958036 -0.019510113 0.67999989 7373438
0.014057023 -0.019771252 0.67999995 7373694
0.022969186 -0.019992214 0.68000001 7307126
0.03567357 -0.018774604 0.6802308 7372917
0.044973105 -0.017402859 0.68120688 7373177
0.054570645 -0.016987471 0.68097621 7372663
0.064269833 -0.017838361 0.68059087 7438717
0.075831875 -0.019234627 0.67999995 7373693
0.08366026 -0.019992214 0.68000001 7570299
0.092498779 -0.019992214 0.68000001 7570047
0.10585475 -0.019010156 0.67999995 7832701
0.1148105 -0.01833795 0.68035287 7701374
0.12471724 -0.018455524 0.68037504 7832958
0.13426071 -0.019992216 0.67999995 7766653
0.14608169 -0.018735314 0.68021435 8029310
0.15533638 -0.017143125 0.68114269 7963518
0.1649594 -0.016823564 0.68146509 7897724
0.17497437 -0.016757431 0.68144673 8093560
0.1850646 -0.016968729 0.68132406 8225658
0.1946176 -0.017584145 0.68113792 8290684
0.20491076 -0.017797101 0.68054169 8619396
0.21503824 -0.018141195 0.6805557 8816516
0.22432664 -0.01862031 0.68011111 8750722
0.23524067 -0.019992216 0.67999995 8816514
0.24679385 -0.019992216 0.67999995 8749694
0.25616071 -0.019032884 0.68018174 8946816
0.26497877 -0.018822677 0.68033338 8749438
0.27545589 -0.019992216 0.68000001 8749694
0.28429437 -0.019992214 0.68000001 8553090
0.29559919 -0.018673137 0.68024999 8749955
0.3058382 -0.017627139 0.68065226 8749183
0.31507349 -0.017617119 0.68089277 8749182
0.32516745 -0.017536104 0.68070006 8683646
0.33138195 -0.017795987 0.68050003 8880256
-0.3835353 -0.040984396 0.69833338 8616569
-0.37531388 -0.040853415 0.69872737 8551033
-0.36475697 -0.040975723 0.69870007 8616827
-0.35466817 -0.040992703 0.69865227 8682619
-0.34477159 -0.040954918 0.69871444 8485755
-0.33486053 -0.040521003 0.69869232 8748669
-0.32395291 -0.040975001 0.69868755 8552061
-0.31425366 -0.041385062 0.69792861 8617598
-0.30456886 -0.042155303 0.69764435 8748925
-0.29476488 -0.042037431 0.69760859 8749440
-0.28494963 -0.042010207 0.69741654 8618110
-0.27521074 -0.04161182 0.69749987 8618111
-0.26487976 -0.041177478 0.69840735 8618370
-0.25493792 -0.041503377 0.69834483 8618628
-0.24476373 -0.042104311 0.69766665 8553091
-0.23496413 -0.04265381 0.69732726 8487554
-0.22525673 -0.042158864 0.69749993 8487807
-0.21476479 -0.041996781 0.69787097 8422016
-0.20476082 -0.043074246 0.69623071 8356737
-0.19498831 -0.043763984 0.69559461 8356738
-0.18525206 -0.042398039 0.6962285 8225666
-0.17525412 -0.041246925 0.69844449 8225923
-0.16494128 -0.040952157 0.69866681 8095107
-0.15471724 -0.040525958 0.69877791 8160900
-0.14434329 -0.040721923 0.69847059 7963262
-0.13443981 -0.041273918 0.69825 7831673
-0.12542661 -0.041013829 0.69823825 7897463
-0.11423445 -0.040534981 0.69893342 7897981
-0.10441905 -0.040533047 0.69889998 7503739
-0.09459129 -0.041221295 0.6982401 7635583
-0.085083492 -0.041523669 0.69700009 7175802
-0.075086996 -0.04154728 0.6970588 7635068
-0.066756584 -0.041238029 0.69681817 7437944
-0.053207792 -0.042116471 0.69706893 7307388
-0.045123372 -0.042201608 0.695804 7175801
-0.035017569 -0.042079836 0.69677985 7175544
-0.024769593 -0.041324478 0.69689995 7110008
-0.014446399 -0.041933235 0.69743174 7044727
-0.0049741017 -0.042926751 0.69670719 7241593
0.0053687706 -0.043240529 0.69636172 7110521
0.015281388 -0.042450514 0.6964317 7373433
0.024900468 -0.042238016 0.69699985 7175538
0.03472368 -0.041617453 0.69766665 7438197
0.043731503 -0.041019354 0.69833344 7241076
0.069643997 -0.040538847 0.69900006 7569782
0.075316496 -0.040518135 0.69864285 7241076
0.085411891 -0.041188091 0.69831026 7306871
0.094960436 -0.041395195 0.69810009 7438715
0.10504212 -0.041503433 0.69750005 7372410
0.11519157 -0.041841038 0.69685709 7635580
0.12493252 -0.042079922 0.69711369 7569531
0.13478085 -0.041331798 0.69755173 7766653
0.14475846 -0.041283075 0.69812518 7635325
0.15482412 -0.041181594 0.69833344 7701376
0.16484527 -0.040944792 0.69816685 7766140
0.17451815 -0.040652256 0.69886672 8290940
0.18630138 -0.040538847 0.699 8553341
0.19567659 -0.040952355 0.69795656 8553855
0.20475313 -0.04138371 0.6979062 8487808
0.21514149 -0.04129586 0.69790316 8619394
0.22509331 -0.041597839 0.69768745 8619137
0.23451486 -0.041128017 0.69826102 8750465
0.24548946 -0.04091917 0.69804001 8684416
0.25483641 -0.041650537 0.69676304 8749694
0.26496184 -0.042256679 0.69731802 8683901
0.27457491 -0.041680157 0.69812506 8684161
0.28442451 -0.041312076 0.69840747 8683644
0.295306 -0.041369744 0.69766682 8683645
0.30553839 -0.041982736 0.69707137 8945534
0.31512469 -0.042543095 0.69737482 8814205
0.32515433 -0.041903876 0.69749993 8749181
0.33416972 -0.041373629 0.69847631 8617338
0.34129941 -0.040538847 0.69900006 9076864
-0.3824802 -0.035648894 0.6946286 8550779
-0.37512174 -0.034917079 0.69365031 8616315
-0.36527964 -0.035007428 0.69426197 8551033
-0.35514042 -0.035001285 0.69437182 8617082
-0.34509528 -0.035159733 0.69424689 8551547
-0.33490193 -0.034931719 0.69400018 8617341
-0.32493213 -0.034776483 0.69354326 8551804
-0.31492671 -0.034757815 0.69275957 8617595
-0.30510104 -0.034949232 0.69241601 8683389
-0.29508626 -0.035028998 0.69292724 8683647
-0.28502548 -0.035156786 0.69301373 8618111
-0.27485919 -0.035425045 0.69281435 8486783
-0.26498181 -0.034864835 0.69357157 8486783
-0.25515831 -0.035314586 0.69391662 8487298
-0.24518239 -0.035766404 0.69350934 8487298
-0.23533234 -0.036125232 0.69232619 8421505
-0.22447519 -0.035947919 0.69216698 8422018
-0.21516736 -0.035161406 0.69343603 8422016
-0.20545745 -0.03541711 0.69370502 8291201
-0.19512258 -0.035374302 0.6943571 8225408
-0.18464816 -0.035731684 0.69341183 8225408
-0.17475644 -0.035151131 0.69351333 8225666
-0.16508552 -0.035387531 0.69398642 8160386
-0.15505838 -0.035257827 0.69315505 8095107
-0.14504188 -0.035821948 0.69307673 8094592
-0.13510071 -0.035768796 0.69273323 7897978
-0.12508407 -0.036330532 0.6934213 7766648
-0.11505342 -0.035555042 0.69326174 7832445
-0.10517942 -0.035938464 0.69383603 7372667
-0.095209688 -0.035901174 0.69314802 7504254
-0.084905356 -0.03602938 0.69274586 7241338
-0.075189598 -0.036738493 0.69240016 7438716
-0.065579236 -0.037339535 0.69150007 7307128
-0.054991037 -0.037411194 0.69154173 7241849
-0.045137078 -0.037251383 0.69121057 7241594
-0.034587253 -0.036485955 0.69172937 7176057
-0.025289817 -0.03554092 0.69191051 7241594
-0.014815366 -0.035657503 0.69233829 7110264
-0.0047760285 -0.036041848 0.69242316 7241849
0.0053255484 -0.035773937 0.6927079 7307641
0.014816662 -0.035762936 0.6919108 7438969
0.024690775 -0.036676202 0.69190019 7241592
0.034921464 -0.036128309 0.69223529 7241846
0.04484234 -0.035680592 0.69300002 7241335
0.055057991 -0.03500919 0.6941973 7307128
0.064943075 -0.035543367 0.69473237 7241334
0.075039223 -0.035882812 0.69354099 7241335
0.085016467 -0.036200412 0.69335097 7372664
0.095106438 -0.036017481 0.69276589 7438458
0.10467508 -0.036598913 0.69233334 7503994
0.11478706 -0.037040714 0.69180959 7635580
0.12499759 -0.036803074 0.69179487 7635326
0.13506591 -0.036752474 0.69257146 7832189
0.14530817 -0.036256917 0.69255775 7897982
0.15501676 -0.036048025 0.69308478 7832704
0.16518725 -0.035834223 0.69318056 7831931
