# .PCD v0.7 - Point Cloud Data file format
VERSION 0.7
FIELDS x y z rgba
SIZE 4 4 4 4
TYPE F F F U
COUNT 1 1 1 1
WIDTH 1096
HEIGHT 1
VIEWPOINT 0 0 0 1 0 0 0
POINTS 1096
DATA ascii
0.0070775216 -0.022816977 0.56098127 16250616
0.014460364 -0.023433428 0.56164581 16514301
0.025279794 -0.024700284 0.5631426 16054524
0.035386711 -0.022115469 0.56153488 16185853
0.045825019 -0.022874998 0.56221926 15922166
0.054697949 -0.02411462 0.56364298 15790838
0.064043678 -0.023814142 0.5632028 15592432
0.07392671 -0.023285307 0.56206453 15132395
0.086648643 -0.020410642 0.56166673 14538970
0.096048139 -0.022814436 0.56391525 14210523
0.10286887 -0.026442921 0.56627667 15000294
-0.15334021 -0.017320767 0.56686848 4341042
-0.14492141 -0.014425938 0.5654943 5525831
-0.1357252 -0.012141637 0.56388706 6840665
-0.12988414 -0.011446668 0.56100005 10327179
-0.011368997 -0.011426263 0.56 16711422
-0.0069963187 -0.011070088 0.56049997 16711422
0.0079902941 -0.016631881 0.56070006 16120572
0.015266201 -0.014554882 0.56316674 16316922
0.025233997 -0.013728744 0.56364059 15987703
0.035198204 -0.014603376 0.5641405 15395823
0.044788033 -0.014457232 0.56576496 16119287
0.054868165 -0.01448304 0.56542242 15264237
0.064736314 -0.014066164 0.56398505 15658480
0.075110927 -0.013911626 0.56471819 13421260
0.084360935 -0.015312882 0.56599075 12433591
0.09266559 -0.01772378 0.56757587 11315370
-0.32147217 -0.0012235771 0.56900001 4142898
-0.31508669 -0.0012235771 0.56900012 4340015
-0.30554822 -0.0012235771 0.56900001 4931895
-0.29643369 -0.001223577 0.56900001 4080178
-0.27404243 -0.0012235771 0.56900007 4998453
-0.26404917 -0.002088242 0.56866682 4802616
-0.25490952 -0.0032194338 0.56789887 4473397
-0.24496755 -0.0029198362 0.56818873 4866873
-0.23548013 -0.0025405197 0.56831509 4931636
-0.22516336 -0.0020035293 0.56857902 4932665
-0.21449959 -0.0031466933 0.56801516 4209714
-0.20512541 -0.0030290177 0.56745619 4998460
-0.19614446 -0.0022562305 0.56816292 4735801
-0.18433122 -0.0020028586 0.56839496 4079669
-0.175823 -0.0017936747 0.56873089 4210740
-0.16512091 -0.0012235771 0.56900001 4736053
-0.15463258 -0.0017494478 0.56870973 4407345
-0.14448394 -0.002810335 0.56856167 5064763
-0.13495593 -0.0048552072 0.5673719 5064765
-0.12547402 -0.0045830281 0.56592017 5195579
-0.11507151 -0.0040253541 0.56568712 5064767
-0.10546628 -0.0036251836 0.56371045 5262142
-0.094935477 -0.0026715272 0.56195247 6117199
-0.08451362 -0.0032859328 0.56259471 7499109
-0.07455074 -0.0041456474 0.56359196 10722967
-0.065227672 -0.0040061544 0.56305796 11249313
-0.055398226 -0.0037175482 0.56272209 11578793
-0.045108061 -0.0036856264 0.56189024 12039090
-0.034704886 -0.0038863157 0.56236577 12433336
-0.024335107 -0.0046637291 0.56350857 13553103
-0.015017139 -0.005298811 0.56377691 14474719
-0.0055494867 -0.0049829902 0.56324208 14672097
0.0047942526 -0.0043516611 0.56246364 13948375
0.015037249 -0.004957438 0.56348825 13750222
0.025289139 -0.0049181595 0.56645215 12631998
0.035031132 -0.0050027254 0.56732583 12697791
0.044951428 -0.0048064245 0.56749201 11710641
0.055123691 -0.0049227569 0.56804007 10591646
0.065340795 -0.004940066 0.56733924 9999763
0.074134253 -0.0049453392 0.56841284 9472906
0.083408952 -0.0024600441 0.56900001 10196626
0.096026056 -0.0017623444 0.56863648 9538190
0.10471221 -0.0015764437 0.56880963 10460058
0.11061122 -0.001223577 0.56900001 10067361
0.12552492 -0.0012235771 0.56900012 10196888
0.17874056 -0.0015945171 0.56900001 11776178
0.18513906 -0.001691454 0.56868428 12039090
0.19197075 -0.0012235771 0.56900001 12039611
-0.32126442 0.003643438 0.56637043 4274222
-0.31500199 0.004688778 0.56598717 4142635
-0.30499369 0.0046193004 0.56643295 4340273
-0.29504436 0.0046688109 0.56621599 4142893
-0.28512162 0.0049534421 0.56671369 3683109
-0.27488104 0.0047492357 0.56632096 4274733
-0.26496133 0.00491603 0.56552541 4537393
-0.25485203 0.0044925902 0.56498581 4537650
-0.24494793 0.0046754167 0.56522387 4406066
-0.23502789 0.0047402037 0.56547868 4275248
-0.22509126 0.0046401965 0.56507915 4406575
-0.2151688 0.0046460927 0.56452596 4406576
-0.20497857 0.0046618492 0.56377459 4274993
-0.1948864 0.0046746484 0.56425893 4406580
-0.18492573 0.0046897829 0.56486064 4209713
-0.17491244 0.0045593735 0.56522089 4209968
-0.16517518 0.0047497316 0.56573218 4407347
-0.15513781 0.0046699289 0.56507081 4802105
-0.14508514 0.0046835383 0.56526792 4932922
-0.13499846 0.0048405365 0.56495047 5327420
-0.12480209 0.0046360525 0.56434953 5459262
-0.11490434 0.0045728558 0.56552511 5656642
-0.10519417 0.0048191822 0.56483203 5591107
-0.095270693 0.0046674781 0.56393224 5985353
-0.085049585 0.0046712207 0.56442881 6906713
-0.074874952 0.004678613 0.56538832 7630440
-0.064687319 0.0045718667 0.56490076 8026225
-0.055065736 0.0047789821 0.56393188 8026483
-0.045208361 0.0046625799 0.56315017 9145222
-0.034982085 0.0046686265 0.56404102 9934482
-0.024713058 0.0046709594 0.56459898 9671313
-0.014945457 0.0045700949 0.56460303 10462369
-0.0054215863 0.0047704396 0.56500733 10658979
0.0047312332 0.0046730009 0.56444228 10527649
0.015037047 0.0046738395 0.5644967 10065811
0.025396504 0.004679373 0.56570131 9802899
0.035016719 0.0046833311 0.56626225 10856359
0.044631116 0.0046866154 0.56644297 10659237
0.055029079 0.0046913661 0.56706882 10198428
0.065265737 0.0046820119 0.56607544 10000791
0.075113893 0.00484889 0.56620502 9671312
0.08479964 0.004755097 0.56704551 9737106
0.09490405 0.0047754156 0.56640327 9737363
0.10506693 0.0047098193 0.56593883 9933971
0.11512828 0.0048308764 0.56696337 9868692
0.12484381 0.0045851092 0.56712723 10329244
0.13474776 0.0052524963 0.567056 9934743
0.14501242 0.0062101302 0.56688392 8815747
0.15494961 0.0063593048 0.56702185 9472906
0.16503918 0.0058160457 0.5670737 10592418
0.17503506 0.0048506083 0.56708038 11315885
0.18500766 0.0047177225 0.56670612 11842484
0.19483046 0.0050468748 0.56690681 11513264
0.20485711 0.006333821 0.56760681 12105657
0.21516277 0.006286195 0.5670498 11315629
0.22514364 0.0057148114 0.56695533 11512751
0.23477413 0.0057704006 0.56684858 11644595
0.24458127 0.0067495028 0.56761372 11578542
0.25528878 0.0078253802 0.56817895 11907764
0.26340091 0.0070913406 0.56802279 12434625
-0.32030183 0.010552951 0.56400001 3026223
-0.31491059 0.013918247 0.56200868 3946026
-0.30498636 0.014184182 0.56215435 4274737
-0.29489401 0.014566385 0.56189203 3880489
-0.28498599 0.014665055 0.56216103 3879207
-0.27495095 0.014674317 0.56203979 4538419
-0.2649793 0.014488818 0.56164682 4472370
-0.25509387 0.014135348 0.5621323 4603955
-0.24496181 0.013607621 0.56215614 4603958
-0.23490812 0.013622222 0.56216007 4670777
-0.22526847 0.013441865 0.56128162 4341556
-0.21503063 0.012421987 0.56115109 4802363
-0.20501094 0.012232044 0.56091338 4801337
-0.19474775 0.012745659 0.56106287 4867643
-0.18502301 0.013692672 0.56132424 4341044
-0.17535624 0.014004483 0.5613935 4341812
-0.16533449 0.013536839 0.56126463 4867384
-0.15448263 0.013108492 0.56097913 4999743
-0.14467455 0.013765185 0.56138098 4736314
-0.13505448 0.013289439 0.56150579 4670522
-0.12505706 0.0128004 0.56108791 5526083
-0.11494923 0.014182318 0.56155491 5590853
-0.10541659 0.01422407 0.56165117 5723209
-0.094783559 0.0133881 0.56147599 5920075
-0.08441741 0.01428532 0.5618282 6644313
-0.074725874 0.014681771 0.56234062 6775900
-0.065260619 0.01443452 0.56197411 7829104
-0.055492166 0.013476327 0.56162882 8158584
-0.045006342 0.013460076 0.56150508 9145226
-0.03476515 0.014148761 0.56164026 9803411
-0.024668345 0.014184983 0.56145227 9803670
-0.015139053 0.013955133 0.56180412 10659237
-0.0054779104 0.014089854 0.56218702 10133150
0.0047098529 0.014172615 0.56192052 10857128
0.014771746 0.01371604 0.56193769 10263703
0.025401954 0.013408332 0.56174779 10132633
0.035355225 0.014287691 0.5622049 10132894
0.044982474 0.014538876 0.5625934 10199457
0.054669898 0.014902244 0.56304824 9936027
0.064851865 0.014919491 0.56248301 9935513
0.074973509 0.014727599 0.56231874 9802900
0.085190631 0.014548454 0.56244719 9211019
0.094982602 0.014897495 0.56249213 8684930
0.10465445 0.014455074 0.56229746 9210503
0.11477564 0.014167153 0.56245613 9934229
0.12503104 0.014731755 0.56252414 10065817
0.13514583 0.015088852 0.56293625 9933972
0.14489181 0.014947638 0.562738 9210243
0.1548129 0.014848724 0.56290859 8880770
0.16477077 0.014835717 0.56277782 10591904
0.175027 0.015106142 0.56362396 11316142
0.18487577 0.014971389 0.56330544 11250092
0.19499546 0.014936364 0.56314963 11908277
0.20505418 0.014908413 0.56293041 12302780
0.21490493 0.014813435 0.56277287 11842487
0.22480854 0.014935902 0.56267834 11645107
0.23485264 0.015055935 0.56318152 10987178
0.24504565 0.015014299 0.5641197 11775924
0.25503394 0.014934755 0.56433338 11841714
0.26216242 0.014531561 0.56437492 11710898
-0.080002688 0.020700149 0.56 6183766
-0.077812254 0.020700149 0.56 6578523
0.055579744 0.020700153 0.56 8553089
0.063105866 0.020700149 0.56 8948101
0.12735869 0.020700149 0.56 9803929
0.13589273 0.021288328 0.56061292 9736851
0.14444779 0.021451132 0.56055278 9210758
0.15490998 0.021049397 0.56066662 9011842
0.16567865 0.021123817 0.56040007 9933204
0.17511447 0.021736369 0.56085432 11315629
0.18503901 0.021828296 0.56067365 11249836
0.19423375 0.02189791 0.56062776 11644594
0.20651236 0.020894239 0.56031251 11777206
0.21572804 0.021859707 0.56071454 11775924
0.2258344 0.022448611 0.56077981 11644593
0.23524688 0.022637252 0.56110966 12040124
0.24461223 0.022129571 0.56110007 11578032
0.25506017 0.021951757 0.56090766 11315373
0.26144159 0.022730077 0.56099999 10525346
0.027424514 -0.12018915 0.57740003 12631487
0.035738461 -0.12207373 0.5769999 12631485
0.045306344 -0.12251931 0.57767659 12500157
0.053834394 -0.12162595 0.57804543 12500156
0.060717449 -0.12052222 0.57900006 12039096
-0.13358849 -0.11107817 0.57700002 11249816
-0.10191316 -0.11099262 0.57655561 5196355
-0.096926644 -0.11096267 0.57639998 8288365
0.0080469772 -0.11127068 0.57800007 12763842
0.01604495 -0.11215606 0.57650012 12960965
0.025398765 -0.11424881 0.57495993 12303037
0.034683507 -0.11568378 0.57414651 12763073
0.045290537 -0.11494749 0.57466143 12763329
0.055159599 -0.11466626 0.57611108 12763328
0.06366235 -0.11311143 0.57803911 12762816
0.072041228 -0.1114632 0.57900006 13026247
-0.16077095 -0.10154097 0.57200003 3946550
-0.15409911 -0.10526456 0.57457149 5984845
-0.1466736 -0.1076496 0.57375002 9998216
-0.13341957 -0.1085232 0.57218188 10656913
-0.12493749 -0.10739298 0.57414287 9537659
-0.1144067 -0.10645567 0.57348001 9340538
-0.10682316 -0.10848328 0.5735001 7564388
-0.093757682 -0.10856073 0.57166672 8813424
-0.082412437 -0.10528043 0.57455558 9866626
-0.031795558 -0.10060391 0.57733339 10395548
-0.02413935 -0.10172597 0.57477278 11579054
-0.014800064 -0.10451014 0.57396555 12368827
-0.0046355007 -0.10678615 0.57387501 12500670
0.0052628187 -0.1060804 0.57304251 12895171
0.014940805 -0.10585173 0.57229304 13158603
0.024174508 -0.10717798 0.5709998 12632002
0.034277145 -0.10934886 0.57033336 12894916
0.045804963 -0.10791013 0.57079059 13026502
0.055509549 -0.10581999 0.57236147 13026244
0.064998537 -0.10553987 0.57454634 12960710
0.074790224 -0.10462741 0.57591927 13091783
0.084611759 -0.10240737 0.57653236 13026247
0.091579296 -0.10126888 0.57800007 12829637
-0.17421328 -0.093022704 0.57700002 3422511
-0.050834287 -0.097536571 0.57700002 11840935
-0.044818081 -0.096814826 0.5749287 11776170
-0.035589937 -0.097278044 0.57292855 11711153
-0.026482947 -0.099335127 0.5710001 11643821
0.059773654 -0.099326029 0.57000005 13026757
0.066206045 -0.098941103 0.57035005 13289161
0.075088404 -0.097854942 0.57127571 13092296
0.085742697 -0.095206738 0.5719071 13026760
0.094887108 -0.094762944 0.57550502 13026503
0.10250955 -0.091922499 0.57781821 13026503
0.089501016 -0.08793053 0.57000011 12697538
0.095499039 -0.08531291 0.57245058 14275802
0.10447189 -0.084236622 0.57628256 14210009
0.1136163 -0.08365912 0.57759374 13618642
-0.013950206 -0.071085028 0.57000005 13291474
0.097725257 -0.075079449 0.57079405 13881303
0.10517939 -0.074738704 0.57442123 13683922
0.11513811 -0.074606724 0.57718784 14013144
0.12147995 -0.073666856 0.57860011 14012374
-0.1807598 -0.065623157 0.57800007 3421738
-0.17921659 -0.062951311 0.57375002 3552042
-0.07237307 -0.063913912 0.57171428 3485741
-0.066062786 -0.063625306 0.57130224 4802633
-0.052904814 -0.063485786 0.57324058 10658465
-0.045153849 -0.068350844 0.57469225 10328734
-0.034426134 -0.066097826 0.57372832 8421768
-0.021276573 -0.064013109 0.57119232 9869211
-0.015175625 -0.066411637 0.57529163 5789019
-0.0063128006 -0.064477362 0.5734691 6251113
0.088757835 -0.060680453 0.57000005 13946317
0.096397899 -0.064414956 0.57156563 14078166
0.10513616 -0.065094925 0.57476169 13947094
0.11531571 -0.065124951 0.57643515 14472927
0.12334292 -0.064061984 0.57791215 13749714
0.13167979 -0.061638564 0.57900006 12959937
-0.051555872 -0.058584269 0.57250005 4670534
-0.045169096 -0.057112213 0.5749231 4276801
-0.037401568 -0.057686139 0.57323533 5067345
-0.021490401 -0.055808444 0.5719375 11382193
-0.014793915 -0.054632261 0.57402432 13159117
-0.0054265237 -0.055845328 0.57261896 13554133
0.00031892868 -0.053248614 0.57000005 14735844
0.087058209 -0.055186238 0.57022202 13947092
0.095065862 -0.054892972 0.57149965 14078423
0.10510296 -0.055122357 0.57402021 14078680
0.11503001 -0.055029511 0.57421541 14933222
0.1247059 -0.054960616 0.575504 13815251
0.13281402 -0.053952176 0.57752502 13025731
-0.18428025 -0.043414883 0.57446158 3487017
-0.014851247 -0.048815183 0.5703001 13883099
0.088311926 -0.047897689 0.57000005 14275546
0.096302398 -0.04656871 0.57047898 14275288
0.10527396 -0.045012031 0.57269245 14472667
0.11384641 -0.044974405 0.57226056 15393262
0.12557366 -0.044783209 0.57386798 14078165
0.13251391 -0.046435557 0.57723075 13091267
-0.1839602 -0.034052584 0.57576185 3816495
-0.17802253 -0.031235622 0.57128572 4277306
0.107231 -0.03613092 0.57147986 14538974
0.11508865 -0.035448544 0.57383615 15459566
0.12341619 -0.03618475 0.57623273 13618386
-0.32463881 -0.022263775 0.57819593 4274478
-0.31506008 -0.022149796 0.57863635 4538165
-0.30472216 -0.022342701 0.57867938 4470831
-0.2957451 -0.022687336 0.57859617 4142379
-0.28465781 -0.020872965 0.57900006 4733488
-0.27480108 -0.021642217 0.57856005 4210740
-0.2650409 -0.021781309 0.57850015 4670005
-0.2544086 -0.022673042 0.57826304 4801850
-0.24533658 -0.023380326 0.57799965 4538419
-0.23632176 -0.021545434 0.57874221 5064508
-0.22393355 -0.02171403 0.57860011 4210743
-0.21512645 -0.022687083 0.57836199 3947827
-0.20532022 -0.021959675 0.57838774 4538678
-0.19468589 -0.021923177 0.57851207 3551787
-0.18436819 -0.0245317 0.57833678 4737085
-0.17534184 -0.024785317 0.57658863 4474170
-0.16665201 -0.02240935 0.57297504 4407865
0.099410139 -0.020548515 0.57000005 9867669
0.10675757 -0.023772806 0.57225668 12170166
0.11531363 -0.025286172 0.57641262 11315371
0.12116037 -0.025383836 0.57860887 10329503
0.16263145 -0.020872965 0.57900006 10986657
-0.32394847 -0.015006527 0.57634205 4142637
-0.31490991 -0.014699871 0.57648641 4603186
-0.30487999 -0.014827172 0.57636762 4407088
-0.29485062 -0.014791645 0.57627255 4208686
-0.284899 -0.014742709 0.57647431 4340267
-0.27477595 -0.014654781 0.57611102 4275249
-0.26497391 -0.014812779 0.57567412 4604212
-0.25500312 -0.01469339 0.57488388 5064759
-0.24494162 -0.014715478 0.57451773 4866871
-0.23514336 -0.014694926 0.5756442 4209456
-0.22497572 -0.014812196 0.57573551 4274993
-0.21497025 -0.014777157 0.5756433 4670008
-0.20494288 -0.014750257 0.57627088 4933951
-0.19495131 -0.014637018 0.5766117 4473402
-0.18493602 -0.014895677 0.57586473 4604988
-0.17505874 -0.014589063 0.57546782 4539450
-0.1653205 -0.014727013 0.57484132 4933695
-0.15582323 -0.012924511 0.57205701 4736057
-0.14641422 -0.010745602 0.57040006 4210226
0.038221315 -0.010143937 0.57000005 16711422
0.040946323 -0.010639392 0.57000005 16711422
0.079096444 -0.010143937 0.57000005 10393489
0.086862497 -0.0109702 0.57061285 9933712
0.095664889 -0.013517476 0.57224745 9736848
0.10519765 -0.014718135 0.57453024 10461088
0.11530632 -0.01477043 0.57638896 10394780
0.12482287 -0.014038129 0.57658029 10394782
0.13470367 -0.013731935 0.57687986 9933970
0.14505146 -0.013549958 0.57737243 8946819
0.15493555 -0.014060774 0.57729399 9407113
0.16480002 -0.014083232 0.57763672 10591903
0.17501089 -0.013859189 0.57696682 11250092
0.18494242 -0.014199434 0.57634944 11447470
0.19465445 -0.013710761 0.57711083 11776691
0.2049934 -0.01350221 0.5779233 11250348
0.21525593 -0.013490327 0.57779044 11578798
0.22512834 -0.013766457 0.57755834 11183786
0.2354016 -0.013147375 0.57846308 12302007
0.24433969 -0.012419869 0.57882476 11183526
0.25600794 -0.012201535 0.57855731 11512235
0.26470792 -0.012852475 0.57807744 10920354
0.27018425 -0.013950752 0.57814282 9539988
-0.32303798 -0.0059533063 0.57264906 3944745
-0.31502557 -0.0054587955 0.57216042 4602929
-0.30500749 -0.0052787201 0.57200003 4143409
-0.29479605 -0.004898204 0.57183993 4471857
-0.2849347 -0.004959444 0.57213038 4012585
-0.27491516 -0.0053647612 0.57167 4537394
-0.26543772 -0.0063015814 0.571347 4538162
-0.25515434 -0.0074272007 0.5705623 4997942
-0.24517176 -0.0073065688 0.57049978 4472117
-0.23452163 -0.0068096579 0.57111239 4274994
-0.22507727 -0.0063830577 0.57144415 4472884
-0.21537118 -0.0073024519 0.57083988 4538423
-0.20491487 -0.0073866784 0.57133961 4801852
-0.19483779 -0.0063520325 0.57211637 4868413
-0.18532966 -0.0062582316 0.57175303 4473659
-0.17461583 -0.0057789707 0.57183647 4934205
-0.16490157 -0.005066786 0.57194525 4078385
-0.15511948 -0.0062438208 0.57128227 4669748
-0.14549479 -0.0065880991 0.57049173 4801077
-0.13939968 -0.0071712001 0.57000005 4080440
0.027073557 -0.0056848316 0.57000005 14869220
0.035451267 -0.0046038362 0.56999999 11579053
0.04137985 -0.0066138115 0.57000011 13618125
0.077817492 -0.0047935885 0.57006657 9473158
0.085270613 -0.005076238 0.57101643 9539464
0.095128559 -0.0051685343 0.57202947 9341575
0.10487426 -0.0058159982 0.57222021 9669770
0.1150956 -0.004910436 0.57225645 9671055
0.12489533 -0.005388537 0.57177675 9670540
0.13511766 -0.0051324591 0.57253051 9341833
0.14493667 -0.0048413421 0.57377034 8814202
0.15485594 -0.0050507649 0.5743174 8485750
0.16498767 -0.0050093415 0.57365608 10526108
0.17493813 -0.0050598541 0.57242268 11052454
0.18485893 -0.0054828296 0.57168007 11184295
0.19503148 -0.0051157805 0.57243937 11447470
0.20511968 -0.0050201248 0.57457423 12039348
0.2151325 -0.0049936702 0.57462394 11381420
0.2249365 -0.0049365275 0.5738889 10921128
0.2351312 -0.0050593056 0.57521582 11052455
0.2450424 -0.0049608024 0.57612485 11315628
0.25500712 -0.0050079166 0.57631183 11316143
0.26442206 -0.0051534646 0.57478851 11907250
-0.29100922 0.00026064061 0.57000005 4666418
-0.28524956 0.00026064061 0.57000011 3749423
-0.27911827 0.00026064061 0.57000005 4670000
0.085041918 0.00026064061 0.57000011 9803154
0.092473753 0.00026064061 0.57000005 9607312
0.13607389 0.00045882302 0.57000011 10198686
0.14489333 0.00094682083 0.57035893 9275269
0.15513155 0.0012415708 0.57061678 9407627
0.16453004 0.0008977729 0.57025707 11250606
0.1725253 0.00026064061 0.57000011 11709873
0.19850136 0.00026064061 0.57000011 12434880
0.20556928 0.0014020033 0.57065105 12039349
0.21452728 0.0011986166 0.5708912 11908278
0.22435026 0.00077175116 0.57037497 11644079
0.23542425 0.00075638457 0.57062966 11907767
0.2453931 0.0016920283 0.57138449 12236218
0.25504005 0.0027801255 0.57168132 11643567
0.26335099 0.0021333951 0.57077771 12236474
0.026121704 -0.12236284 0.58366668 12368316
0.035450753 -0.12614854 0.58344126 13025987
0.044478092 -0.12719296 0.58304167 12697280
0.055354554 -0.12555163 0.58347619 12434364
0.064656146 -0.122595 0.5831629 12565436
0.075366579 -0.12201724 0.58485997 12565695
0.083343357 -0.12153528 0.58754551 12763328
-0.14866003 -0.11071295 0.583 5785919
-0.13336182 -0.11209477 0.58424997 11117717
-0.12899894 -0.11047558 0.58175004 10787726
-0.11103258 -0.11033315 0.58100003 7629922
-0.1035739 -0.11364336 0.58437502 4736830
-0.097734973 -0.11299728 0.58300006 6446933
-0.0041890894 -0.11158729 0.58491665 11052966
0.0050620455 -0.11344849 0.58358335 12434362
0.015445524 -0.11633067 0.5836128 12632255
0.021881482 -0.11875874 0.58219993 11908537
0.065818921 -0.11679129 0.58050013 12894401
0.075014852 -0.11521103 0.58201712 12828867
0.085049249 -0.11499797 0.58561695 12894658
0.094294436 -0.1137113 0.5872879 12894916
0.10207404 -0.11083691 0.58850002 13026502
-0.15297776 -0.10937998 0.58400005 5328965
-0.12208958 -0.1088181 0.58100003 8748143
-0.11736797 -0.10883892 0.58111113 9405558
-0.045934256 -0.1004672 0.58530772 11513254
-0.035283282 -0.10182898 0.58436358 11184548
-0.023533788 -0.10514528 0.58323079 10855075
-0.015209685 -0.10779047 0.58272219 10919838
-0.0087551735 -0.10869324 0.58033335 12829378
0.078145929 -0.10846826 0.58028573 13091778
0.085533544 -0.10744085 0.58125484 12829380
0.095473893 -0.10591974 0.58354557 12960966
0.10442082 -0.10402178 0.58646172 13157575
0.11130268 -0.10188863 0.588 13224139
-0.16916645 -0.099613361 0.58033341 4276790
-0.041230302 -0.099830776 0.58160007 11709865
-0.038131393 -0.09965913 0.58059996 11579309
0.097551264 -0.099315114 0.58055556 13026504
0.10574807 -0.09533453 0.58213276 13157576
0.11449597 -0.094507314 0.58608067 13421263
0.12274774 -0.092414528 0.58779997 12894660
0.10762048 -0.087175727 0.58115 13158347
0.11569069 -0.085754313 0.58305502 13552847
0.12443755 -0.084121317 0.58510232 13223368
0.13103461 -0.081395075 0.58771425 13617352
-0.18534878 -0.070940234 0.58724999 3683371
0.11772805 -0.079138137 0.57999998 13685465
0.12600094 -0.074961536 0.58169806 13486283
0.1344019 -0.074089982 0.58656013 13025728
0.14086567 -0.071150661 0.58900005 12762044
-0.18471999 -0.065545246 0.58525002 3880493
-0.050696533 -0.062700354 0.58285719 4473665
-0.045117952 -0.064230226 0.58460033 4671048
-0.038084928 -0.064040199 0.58333331 5198680
-0.012864067 -0.062220164 0.58040476 7171951
-0.0087501444 -0.060988799 0.58000004 9212312
0.1267675 -0.065996841 0.58058339 13354954
0.13491473 -0.064920165 0.58329099 12828350
0.14215857 -0.063908011 0.58711123 12433592
-0.19262153 -0.051414706 0.58724999 4143919
-0.18905647 -0.05124611 0.58100003 4077357
-0.044784818 -0.058799677 0.58078569 4804172
-0.012531256 -0.058720134 0.58000004 13093835
0.12888233 -0.058720134 0.58000004 13354954
0.13609597 -0.055698741 0.58108342 12762557
0.1436151 -0.054758895 0.58617508 10854816
-0.33156109 -0.041504972 0.58787507 4736049
-0.32484865 -0.041528989 0.58821422 3946543
-0.31569594 -0.041290067 0.5887143 4669494
-0.30449206 -0.041601606 0.58846426 4208941
-0.29480091 -0.041852031 0.58764857 4406316
-0.28542206 -0.04170391 0.58835715 4011818
-0.27429098 -0.042297699 0.58809757 4011822
-0.26504344 -0.043203011 0.58775383 4473397
-0.25562987 -0.042440802 0.5876981 4670006
-0.24493477 -0.041792192 0.58805704 4078381
-0.23435839 -0.042230193 0.5880475 4340527
-0.22479583 -0.042501912 0.587569 4340783
-0.21538803 -0.042162918 0.58794999 4472626
-0.2042283 -0.041934472 0.58794737 4013361
-0.19452044 -0.043980516 0.58643991 3946797
-0.18851459 -0.044144657 0.58225 3552554
0.13631129 -0.04426603 0.5817315 10854046
0.14443925 -0.044830266 0.5867824 9538438
0.1508491 -0.041200344 0.58900005 9670024
0.20921382 -0.041200344 0.58900005 7894133
0.21293305 -0.041688997 0.58866674 10657957
-0.33106169 -0.035432395 0.58474076 4406831
-0.32490581 -0.034892995 0.5842641 4209199
-0.31518102 -0.034729376 0.58463985 4407347
-0.30517307 -0.034736399 0.58421808 4275246
-0.29474172 -0.034996379 0.58345515 4275758
-0.28498688 -0.034720585 0.58445448 4274218
-0.27507532 -0.034889389 0.58469689 4668981
-0.26503384 -0.034654543 0.58414376 4603442
-0.25507721 -0.034865193 0.58390069 4538677
-0.24494974 -0.035054613 0.5837 4604211
-0.2351622 -0.034797449 0.58451372 4143919
-0.22484195 -0.034732122 0.58361828 4143918
-0.21490069 -0.034760974 0.58350682 4406320
-0.20492375 -0.034645505 0.58412868 4275764
-0.19496559 -0.034727152 0.58274394 4276022
-0.18826199 -0.035333939 0.58048272 3224358
0.12746565 -0.032890633 0.58129174 10132381
0.13516709 -0.034683924 0.58399975 9407627
0.14485101 -0.034711849 0.58564842 8946558
0.15470463 -0.034298223 0.58673942 9670542
0.16499294 -0.033257689 0.58589011 9934747
0.17500392 -0.033484671 0.58629471 11184554
0.18477552 -0.032922089 0.58674711 11381933
0.19512592 -0.032771118 0.58714104 11776950
0.20533796 -0.033455987 0.58645087 11579571
0.21464337 -0.034079779 0.58636928 11579058
0.22525084 -0.032193772 0.58707821 11184815
0.23528437 -0.033177327 0.58698899 11381937
0.24498397 -0.033337492 0.58654159 11447216
0.25499246 -0.033234548 0.58681518 11249837
0.26505876 -0.033216119 0.58675307 11578287
0.272499 -0.034371659 0.58698303 11906996
-0.32497555 -0.026794976 0.58034354 4209456
-0.31489486 -0.026732201 0.58053041 4669753
-0.30514735 -0.026636669 0.58028579 5128245
-0.29402646 -0.026248949 0.5802148 4274989
-0.28504765 -0.025241081 0.58068699 4537134
-0.27526352 -0.025596917 0.58078551 4735541
-0.26488659 -0.026404539 0.58074057 4669750
-0.2555517 -0.026873311 0.58055544 4999227
-0.24420066 -0.027919604 0.58008152 4801592
-0.23485972 -0.025705593 0.58082068 4867641
-0.2255836 -0.02581891 0.58052921 4209710
-0.21500111 -0.027291859 0.58008689 4867899
-0.205047 -0.026409827 0.58042896 4802363
-0.19502077 -0.026533078 0.58042347 3946798
-0.18629913 -0.026088152 0.58006662 4276792
-0.1796564 -0.025446348 0.58000004 4079164
0.12600486 -0.025001705 0.58096838 10460831
0.13521016 -0.024648082 0.58200872 9934229
0.14495637 -0.024908464 0.58171737 8815488
0.15497158 -0.024706388 0.58169389 9671055
0.1649621 -0.02474406 0.58131021 10855335
0.17489085 -0.024838166 0.5817315 11250347
0.18496642 -0.024699071 0.58219838 11645619
0.19497333 -0.024927437 0.58258843 11250863
0.20501135 -0.024726283 0.58189541 12105915
0.21490611 -0.024747983 0.5815444 11908535
0.22507481 -0.024766237 0.58255112 12236986
0.235064 -0.024752978 0.58222163 10921130
0.24475127 -0.024827899 0.58171725 11578543
0.25507197 -0.024763722 0.58245194 11906994
0.26492298 -0.024886176 0.5822593 11513008
0.27154914 -0.025021188 0.58294725 10593447
-0.28250265 -0.019396568 0.58000004 4602933
-0.27947775 -0.019396568 0.58000004 4537395
0.12639125 -0.018951733 0.57999998 9473165
0.13549928 -0.018876664 0.57999998 9670029
0.1443276 -0.018571602 0.57999998 8880511
0.15451428 -0.018918958 0.57999998 9736592
0.16551711 -0.018668361 0.57999998 10657699
0.17482282 -0.018955441 0.57999998 11250089
0.18462671 -0.01939657 0.57999998 11710385
0.19632326 -0.01857839 0.58008569 11513778
0.20524609 -0.018454425 0.58009374 11316140
0.21517129 -0.018680148 0.57999998 11908278
0.22505867 -0.0188588 0.58007139 11249834
0.234559 -0.017550496 0.58007401 11118251
0.24585865 -0.016586769 0.58004767 10130842
0.25436199 -0.016860282 0.58016706 10920099
0.264909 -0.018003894 0.58016974 10657954
0.27090701 -0.018026449 0.58049995 9934230
0.036275763 -0.13133691 0.5953846 13880523
0.045340333 -0.13201357 0.59399992 13354951
0.054164231 -0.13157336 0.59541672 12631486
0.016337853 -0.12157576 0.59553844 12236984
0.023057628 -0.12335658 0.59075004 12500413
0.033464517 -0.12867089 0.59100002 13881292
0.056695104 -0.12943961 0.59216672 12434106
0.065759122 -0.12726982 0.59266675 12236983
0.075210132 -0.12760219 0.5945884 12303036
0.085775569 -0.12486204 0.59319574 12828609
0.095169388 -0.12302789 0.59488463 12895174
0.1017097 -0.1223706 0.59809095 13026501
-0.1540443 -0.11512088 0.59800005 4869185
-0.1419488 -0.11677781 0.59850001 7431778
-0.13564557 -0.11536717 0.59477782 10392711
-0.11350034 -0.11668026 0.59800005 4996914
-0.017214114 -0.11112807 0.59333336 5855321
-0.0032867063 -0.11551615 0.59466672 7368815
0.0051179216 -0.11792573 0.59469569 8814206
0.013686324 -0.11893209 0.59111118 12565695
0.089564353 -0.11973488 0.59000003 13025987
0.095989719 -0.11794761 0.59074193 12894660
0.10505196 -0.11487611 0.59317499 13026502
0.11368763 -0.11269993 0.59693938 13420749
-0.17752914 -0.10235097 0.59757143 3749421
-0.041471876 -0.10579995 0.59820002 7630180
-0.039671436 -0.10281115 0.59000003 12104103
-0.025269216 -0.1085645 0.59483337 5789527
-0.019670658 -0.10896524 0.59000003 6644065
0.1082373 -0.10722229 0.5905 13289162
0.11534563 -0.10522658 0.59353101 13421006
0.12375654 -0.10343666 0.59685975 12960195
-0.18109544 -0.097424187 0.59466672 3224873
-0.17934608 -0.098861322 0.59400004 4143652
0.11709652 -0.097869709 0.59035003 13420493
0.12538803 -0.095277317 0.59285176 12762816
0.13240744 -0.093633711 0.59705716 12565180
0.1275696 -0.088346362 0.59061545 12631483
0.13506702 -0.084931716 0.59405488 12499130
0.14169922 -0.082050085 0.59807152 12368312
-0.19215389 -0.072068423 0.59836364 4208944
-0.18792094 -0.071673416 0.59242862 4012081
0.13775468 -0.077424176 0.59126091 12434362
0.1442654 -0.074604236 0.59470588 11578284
0.15130435 -0.071385607 0.59870005 8749703
-0.33393076 -0.061034206 0.59900004 4604215
-0.32481191 -0.062147819 0.59843409 4735544
-0.3155027 -0.062386323 0.59854853 4536368
-0.30550054 -0.061685313 0.59888399 4668467
-0.29504997 -0.061736189 0.59887832 4209198
-0.28436866 -0.062494133 0.59842604 4340269
-0.27481541 -0.063666791 0.5973804 4406577
-0.26529971 -0.063222587 0.59770519 4866615
-0.25476354 -0.062801428 0.59840584 4538671
-0.24531257 -0.063280866 0.59834141 4471598
-0.23480509 -0.062714949 0.59827995 4078124
-0.22520201 -0.06282711 0.59821737 4209454
-0.21507274 -0.062956579 0.5982973 3881778
-0.20499781 -0.063245662 0.59785396 4210227
-0.19552964 -0.064611256 0.59729683 3881264
-0.18807453 -0.066926047 0.59184617 3946543
-0.044202201 -0.063516766 0.59072727 4606024
0.14692451 -0.065977372 0.59231478 10591647
0.15430249 -0.063678026 0.59678954 9407888
0.16211273 -0.060866866 0.59900004 9342355
-0.33405808 -0.055202484 0.59704119 4603446
-0.32491857 -0.054976922 0.59663659 4668980
-0.31516415 -0.054906126 0.59624344 4143918
-0.30510366 -0.05496119 0.59659541 4406323
-0.29492313 -0.054948118 0.59645385 4471602
-0.28500986 -0.054795627 0.59548694 4077096
-0.27495652 -0.05476715 0.59402859 4669488
-0.26513585 -0.054763511 0.59410596 4274736
-0.25518674 -0.05479046 0.59536403 4143918
-0.24496883 -0.054875027 0.59537989 4274733
-0.23484495 -0.054837108 0.59509486 3814699
-0.22495733 -0.054821145 0.59492004 4407091
-0.21512884 -0.054668467 0.59519368 4144178
-0.20502958 -0.054803554 0.59450501 4012337
-0.19778986 -0.054542009 0.59337991 3814700
0.14883339 -0.055073731 0.59049994 9342090
0.15498336 -0.054969557 0.59397906 9802645
0.16449255 -0.05480079 0.59736276 10525598
0.17484057 -0.054124143 0.59826511 10526369
0.1855412 -0.054114196 0.59806955 10395551
0.19489273 -0.054902509 0.597763 10789541
0.20504893 -0.054371871 0.59815949 11184556
0.21494055 -0.054580823 0.59729904 11053225
0.22508416 -0.054826263 0.59770751 10658212
0.23504391 -0.054850031 0.59755462 10855334
0.24493311 -0.054676868 0.5975607 10657445
0.25502363 -0.055165645 0.59781027 11183016
0.2647073 -0.054268602 0.59755784 11052200
0.27503109 -0.05440183 0.59780604 11183784
-0.33269978 -0.046520308 0.5921399 4669751
-0.32487282 -0.046314854 0.59227657 4669236
-0.31493497 -0.045794193 0.59202075 4735285
-0.30515751 -0.046424624 0.59190899 4340529
-0.29491916 -0.046689764 0.59155989 4406835
-0.28499478 -0.046116833 0.59120619 4077608
-0.27537239 -0.046824064 0.59080571 4537648
-0.26483735 -0.047928408 0.59055316 4143921
-0.25470883 -0.046997167 0.59114057 4407089
-0.24507457 -0.046569675 0.5914402 4078895
-0.23527938 -0.046752781 0.59092844 4012077
-0.22479226 -0.047474958 0.59091914 4079151
-0.21473788 -0.046578068 0.59114254 4209970
-0.20538078 -0.046747416 0.59114069 4407092
-0.19783816 -0.047829751 0.59025007 4078640
0.14956667 -0.047116674 0.59000009 8947067
0.155476 -0.045324676 0.59170163 9473675
0.16509473 -0.045397066 0.59358364 10065561
0.17491326 -0.045356397 0.59445637 10592161
0.18495637 -0.045567904 0.59446704 10986919
0.19499457 -0.045367602 0.59438121 10526111
0.20510216 -0.045423679 0.59400862 10855588
0.21493727 -0.045524184 0.59284765 10921127
0.22535324 -0.045595367 0.59449208 11184298
0.23512867 -0.045279372 0.59373939 10987177
0.24494824 -0.045319863 0.59364933 10921386
0.25500399 -0.045560926 0.59416407 11644851
0.26494715 -0.045387372 0.59381366 11446703
0.2740953 -0.045588344 0.59376061 10855080
0.15655112 -0.039373722 0.59005886 10065556
0.16517393 -0.039007537 0.59039021 10724260
0.17511684 -0.038999762 0.59055543 11250605
0.18547918 -0.038496006 0.59077537 11119022
0.19505727 -0.038352001 0.5911752 11447726
0.20416178 -0.038579211 0.59054542 11184555
0.21606489 -0.039059363 0.59030008 11645361
0.22541691 -0.037690971 0.59092939 11119532
0.23475057 -0.038586292 0.5907141 10987692
0.24526574 -0.038927525 0.5905714 11579058
0.25534457 -0.038726732 0.59068286 11512497
0.26499701 -0.038687062 0.59053189 11381677
0.27307895 -0.039544586 0.59026676 11973304
0.035319626 -0.13286479 0.6006667 13024698
0.041161481 -0.13509105 0.60219997 11511460
0.052587718 -0.13450481 0.60169995 13618635
0.069754511 -0.13224481 0.60500002 12236724
0.076338582 -0.13244155 0.60589999 12565948
0.084832236 -0.13151522 0.6056667 14013141
0.091921106 -0.13122872 0.60760003 14540513
-0.11325201 -0.12093121 0.60839999 4670261
-0.10529442 -0.12136537 0.60631239 4671292
-0.0048095724 -0.12011803 0.60750008 5791323
0.0026926915 -0.12110119 0.60450006 5987163
0.016194783 -0.12655874 0.60800004 5329235
0.068395734 -0.12958728 0.60000002 12368309
0.073931426 -0.12969527 0.60049999 12303287
0.085457526 -0.12905872 0.6007778 12960708
0.09589415 -0.12827495 0.60373914 14211035
0.10520745 -0.12474632 0.60495454 13881296
0.11300389 -0.12097977 0.6072858 12829125
-0.17359239 -0.111452 0.60775 3814190
-0.1677185 -0.11387505 0.60800004 4275508
-0.15563989 -0.11735463 0.60550004 4539962
-0.14605244 -0.11723772 0.6008572 4801596
-0.13283306 -0.11762796 0.60285717 8154981
-0.12415347 -0.11866396 0.60816669 3946800
-0.1171984 -0.11813494 0.60455555 4406837
-0.10013122 -0.11903054 0.60200006 4342591
-0.077347316 -0.1122896 0.60800004 10194050
-0.032921795 -0.11058275 0.60733336 5395284
-0.024967348 -0.1131009 0.60666668 5724244
-0.015288791 -0.11602353 0.60490906 5921881
-0.0052288505 -0.11835095 0.60284621 5790813
0.10847346 -0.1188328 0.60100001 13025990
0.11581354 -0.11629307 0.60323077 13092297
0.1242006 -0.11285178 0.60576928 12894403
0.13181651 -0.11116944 0.60837507 12959938
-0.18260768 -0.10255273 0.60480011 3947823
-0.17846768 -0.1066039 0.6052857 3881266
-0.051886998 -0.1073367 0.60688889 11052185
-0.043027423 -0.10829945 0.60581821 6249301
-0.038330387 -0.10862511 0.60525006 5330769
-0.029465128 -0.10952063 0.60150003 5330260
0.11924516 -0.10924751 0.60000002 13157575
0.12622853 -0.10725124 0.60183787 12828609
0.13403985 -0.10457037 0.60501522 12697021
0.14009064 -0.10135782 0.60900003 12434361
-0.19099644 -0.093969926 0.60640007 4011565
-0.18806329 -0.09739621 0.60510004 3946286
0.13681602 -0.095778383 0.60305882 12630972
0.14272697 -0.093246244 0.60690624 12170421
-0.32163981 -0.081109956 0.60900003 4667189
-0.31558895 -0.080861762 0.60862505 4669238
-0.30933231 -0.080712944 0.60900003 4274736
-0.2833454 -0.080774643 0.60866672 5130041
-0.27520388 -0.08101207 0.60865229 4538421
-0.26498568 -0.080668747 0.60866678 4406835
-0.25398481 -0.081090219 0.60829628 4538165
-0.24540865 -0.080769576 0.60857147 4076847
-0.23529582 -0.080646679 0.6085 4604723
-0.22601831 -0.080694012 0.60885715 3816494
-0.21343181 -0.080659926 0.60860002 4079924
-0.20457917 -0.081104748 0.60826927 3289385
-0.19617413 -0.083894067 0.60712504 3683628
0.13930945 -0.087807715 0.60050005 12433593
0.14538738 -0.085639946 0.60410458 10854561
0.15359546 -0.082522385 0.60762787 9605005
-0.34191692 -0.075027771 0.60686105 5195578
-0.33503398 -0.074423306 0.60643703 4407606
-0.32512072 -0.074693561 0.60612363 4669237
-0.31516775 -0.07487119 0.60580879 4801334
-0.30534568 -0.074317746 0.60598177 4538166
-0.29511642 -0.074343063 0.60637492 4341045
-0.28502268 -0.074668616 0.60505503 4537902
-0.27482533 -0.074643634 0.60427833 4406579
-0.26522538 -0.074587844 0.60512263 4013105
-0.25505286 -0.074609205 0.60445946 4012335
-0.24500373 -0.074670762 0.60446572 4143149
-0.2350968 -0.074436143 0.60484535 4341296
-0.22503483 -0.074495554 0.60530376 4275760
-0.21478651 -0.074537799 0.60498172 4144179
-0.20484263 -0.074581116 0.6041103 3881520
-0.19696185 -0.073999278 0.60250854 3814959
0.14836147 -0.078328289 0.60114294 9473679
0.15552664 -0.074831389 0.60420978 8685192
0.16481127 -0.074131049 0.60738194 9803415
0.17505094 -0.072413132 0.60799992 10328990
0.18527599 -0.071936116 0.60788888 10264479
0.19509447 -0.072424628 0.60773212 10592674
0.20533173 -0.073114157 0.60728383 9934233
0.21507601 -0.073189817 0.60754281 10197661
0.22506997 -0.073161758 0.6072638 11051686
0.23484147 -0.072963335 0.60775411 10459806
0.24505717 -0.072931282 0.60770506 10526114
0.25478709 -0.072798863 0.60770971 10196892
0.26531318 -0.072851375 0.60793549 10854564
0.27509257 -0.072813064 0.60792989 10394012
0.28322253 -0.072116546 0.60792595 10658467
-0.34082144 -0.067014813 0.60290009 4473143
-0.33534503 -0.065866716 0.6016385 4998458
-0.32517049 -0.067108944 0.60118186 4011564
-0.31477243 -0.067149781 0.60129815 4274990
-0.3050257 -0.066373006 0.60153985 4275250
-0.2949149 -0.06638249 0.60153329 4077356
-0.28567585 -0.066951722 0.60095912 4208941
-0.27564016 -0.068397328 0.60011768 4208942
-0.26416093 -0.067963578 0.60093939 4537906
-0.25540733 -0.067549758 0.60078049 4208427
-0.24433112 -0.067738891 0.60057139 4273962
-0.23516437 -0.067747034 0.6006428 4406319
-0.22471297 -0.067576453 0.60088366 4341298
-0.21559882 -0.067632519 0.60094875 4013362
-0.20558523 -0.068225823 0.60069227 4209968
-0.19714037 -0.067769751 0.60055 3945517
0.15777622 -0.067390628 0.60135007 8948365
0.16520193 -0.065188855 0.60241044 9934491
0.17507498 -0.065069586 0.60383195 10066073
0.18518174 -0.065113671 0.60373908 10329504
0.19506647 -0.064904377 0.60274565 10263709
0.20492388 -0.065045647 0.60253525 10526112
0.21502149 -0.064917602 0.60286844 10855588
0.22495408 -0.064910315 0.6028071 9539475
0.23490037 -0.064988844 0.60301787 10591904
0.24503694 -0.064949393 0.60301685 10460833
0.25512242 -0.065052159 0.60326624 10723235
0.26488492 -0.064998612 0.60370648 10723235
0.27497929 -0.065087564 0.60386795 10986152
0.28183064 -0.066212572 0.60439396 10986667
0.16852999 -0.059180368 0.59999996 9144461
0.17543338 -0.058945097 0.60050005 10197407
0.18401569 -0.058447044 0.60050005 10591646
0.19825736 -0.059180364 0.60000002 10131855
0.20597599 -0.058927275 0.60031819 10855593
0.21489836 -0.059191328 0.60011107 11315112
0.22524393 -0.059043635 0.6002 10197405
0.23306966 -0.059180364 0.60000002 10065561
0.24545605 -0.059180371 0.59999996 10724518
0.26663244 -0.05902531 0.60029417 11510954
0.27483648 -0.059123982 0.60026312 11182758
0.28039876 -0.059180364 0.60000002 11578797
0.044552691 -0.14120176 0.61655551 5723475
0.051041339 -0.14134173 0.61716676 6642521
0.015923098 -0.13025182 0.61800003 4871248
0.021330211 -0.13207673 0.61900002 5987167
0.037348758 -0.1389588 0.61375004 6053466
0.040108174 -0.13810976 0.61000001 4278338
0.065088265 -0.13701017 0.61628574 11840937
0.074745119 -0.13621871 0.61583334 11249317
0.086518794 -0.13508107 0.61388898 14274513
0.095122054 -0.13388079 0.61466676 10985637
0.10434918 -0.13219203 0.61576933 10129813
-0.16188969 -0.12038749 0.61700004 4540734
-0.15559594 -0.12136167 0.61650008 4670779
-0.14253049 -0.12104073 0.6121667 4274744
-0.13518366 -0.12149628 0.6144706 4604477
-0.12273802 -0.1221094 0.61757141 3750191
-0.11506369 -0.12307093 0.61515796 4801848
-0.10458951 -0.12410001 0.61588895 4671293
-0.0958011 -0.12159501 0.61660004 5130565
-0.013860207 -0.12085832 0.61666673 5131853
-0.0051008901 -0.12243618 0.61395001 5593689
0.0050800778 -0.12550454 0.6143201 5724247
0.014308878 -0.12844457 0.61450005 5329485
0.10769375 -0.12847534 0.61260003 13223364
0.1148535 -0.12452563 0.61437505 12104116
0.12431611 -0.12159269 0.61740005 14605023
-0.19092967 -0.11109286 0.61900002 4275760
-0.18363766 -0.111431 0.61738896 4143153
-0.17512029 -0.11429191 0.61527282 4078388
-0.16622144 -0.11668459 0.61360002 4342069
-0.15641022 -0.11968507 0.61340004 4670782
-0.14715903 -0.11931434 0.61150002 4668467
-0.12583098 -0.11909261 0.61036372 4670525
-0.090045698 -0.11916358 0.61900002 4932157
-0.088441871 -0.11792488 0.61533338 6381395
-0.077495664 -0.11367474 0.61550003 9802120
-0.052352276 -0.11086211 0.61771435 5196358
-0.045003477 -0.11178134 0.61642855 4867650
-0.035321485 -0.11248787 0.61426663 5329490
-0.025049906 -0.11619408 0.61488008 5330001
-0.015366307 -0.11849273 0.61169231 5724246
0.11970729 -0.11908671 0.61033338 12896201
0.12617373 -0.11693852 0.61245453 13092040
0.13485941 -0.11478153 0.61475438 13091013
0.14239176 -0.11256561 0.61740917 9735569
-0.34432572 -0.10281879 0.61872548 5656645
-0.33450839 -0.10349119 0.61867636 5130819
-0.32465699 -0.10356721 0.61850733 4998974
-0.31505117 -0.10282712 0.61839217 5261631
-0.30539575 -0.10254087 0.61864281 5327935
-0.29506144 -0.102271 0.61867565 4670264
-0.28465018 -0.10238549 0.6184001 5129275
-0.27499464 -0.10228646 0.61888885 5129787
-0.26510733 -0.10240173 0.61867577 4735283
-0.25509772 -0.10318605 0.61848724 4604213
-0.24465503 -0.10367323 0.61844432 4735285
-0.23469746 -0.10392683 0.61842853 4538161
-0.22532935 -0.10326834 0.61889082 4407094
-0.21480574 -0.10280609 0.61870819 4209715
-0.20506363 -0.10334429 0.61815876 4275766
-0.19528247 -0.10466811 0.61767155 4145203
-0.18632726 -0.106588 0.61431581 4014130
-0.17999315 -0.10983656 0.61200005 3550765
-0.05700735 -0.10841753 0.61300004 10129801
-0.046130169 -0.10965709 0.611 5065025
0.13840331 -0.1072241 0.61075008 13157061
0.14483365 -0.10457979 0.61527628 10131352
0.15402824 -0.10233963 0.61853135 9736592
0.16375464 -0.10159789 0.61900008 10066072
0.17225264 -0.101408 0.61900002 10264994
-0.34463444 -0.095470391 0.61662292 4735803
-0.33499762 -0.095504172 0.61696494 5327938
-0.32497257 -0.095377773 0.61610037 4933185
-0.31502926 -0.095109083 0.6153565 5458494
-0.30477509 -0.095310614 0.61558974 5064765
-0.29487559 -0.095254488 0.61575705 4472884
-0.28484124 -0.095172703 0.61554301 4471343
-0.27494839 -0.095372148 0.61618739 4932151
-0.26501876 -0.095217168 0.61580396 4603701
-0.25502461 -0.095294803 0.61601651 4472374
-0.24492833 -0.095264867 0.61639661 4537906
-0.23487231 -0.095602565 0.61685455 4603954
-0.22486015 -0.095456675 0.61757886 4538421
-0.21467371 -0.095449314 0.61687976 4472627
-0.20477018 -0.095301561 0.61562526 4012850
-0.1966342 -0.095241055 0.61396921 3880494
-0.18894897 -0.099933565 0.61000001 4076584
0.14660846 -0.096065953 0.61184633 10789025
0.15506835 -0.095108911 0.61499995 9670803
0.16503164 -0.09539111 0.61633933 9868693
0.17476751 -0.095286727 0.6169135 9802904
0.18458578 -0.094227143 0.61749381 10065306
0.19477545 -0.093822263 0.6180923 9670546
0.20504212 -0.093985133 0.61774075 10328990
0.2149912 -0.094588205 0.61731809 10197148
0.22504473 -0.09400136 0.61819994 10262937
0.23522729 -0.09370102 0.61820889 10329246
0.24509487 -0.095008306 0.61776996 10197149
0.25459188 -0.095057927 0.61784697 10459803
0.26497754 -0.093917258 0.618029 10657185
0.27560216 -0.093522944 0.61778802 9802392
0.28462178 -0.093774162 0.61785239 9671061
0.29065719 -0.093061097 0.61849999 9144203
-0.34345996 -0.085454792 0.6125924 4866362
-0.33488548 -0.085188568 0.6124323 5064255
-0.32532272 -0.085239016 0.61194843 4800826
-0.31504735 -0.085704431 0.61168921 4801337
-0.30506667 -0.085134104 0.61253685 4537648
-0.29488021 -0.085172772 0.61242962 4472115
-0.28517863 -0.085730135 0.61198902 4142637
-0.27490643 -0.085962065 0.61178875 4340788
-0.26486146 -0.085804529 0.61142117 4604468
-0.25508842 -0.086185567 0.61163962 4932407
-0.24506663 -0.085620463 0.61232334 3881262
-0.23507467 -0.085553139 0.61273366 4210223
-0.22500856 -0.085437223 0.61302799 4209710
-0.21524295 -0.085590944 0.6123997 4538420
-0.20520428 -0.086077139 0.6118046 3684656
-0.19813143 -0.086899757 0.61154163 3618092
0.14986472 -0.088798843 0.61000001 9605003
0.15656058 -0.086404614 0.61108637 9539473
0.16513352 -0.085091047 0.61174297 9276815
0.17530057 -0.085369006 0.61338139 9803158
0.18526983 -0.085442245 0.61416531 10000539
0.19512862 -0.085492626 0.61478722 9868692
0.20500849 -0.085286133 0.61455619 10263450
0.21474166 -0.085331768 0.61333281 10065560
0.22484139 -0.085383892 0.61443281 10130840
0.23482879 -0.085699268 0.61493134 10328991
0.24501581 -0.085238248 0.61418772 10197147
0.25491419 -0.085387848 0.61328673 10591391
0.26503593 -0.085247733 0.61388677 10723236
0.27471516 -0.085342236 0.61344421 10262684
0.28472632 -0.085544281 0.61398035 10329247
-0.34244904 -0.079254799 0.61000007 5196096
-0.335291 -0.079254799 0.61000007 4013108
-0.32813299 -0.079254799 0.61000001 4147000
-0.30323282 -0.079254799 0.61000007 4340789
-0.29679671 -0.079254799 0.61000007 4209201
-0.23444226 -0.079254799 0.61000001 4406576
-0.22473915 -0.079254799 0.61000007 3552809
-0.21917178 -0.079254799 0.61000001 3816492
0.15940876 -0.079254799 0.61000001 9408142
0.16640382 -0.078736939 0.6100952 9869207
0.17500113 -0.077443898 0.61059332 10197660
0.18480751 -0.076844022 0.61080259 10066331
0.19510008 -0.077615038 0.6110847 9934488
0.20464505 -0.078088291 0.61102062 10262940
0.2151185 -0.078236237 0.61041874 10066076
0.22506525 -0.078356467 0.61048841 10263197
0.23563665 -0.077965282 0.61079174 10590876
0.24466993 -0.077884316 0.61072004 10196379
0.25493678 -0.077798016 0.61035204 10262939
0.26495525 -0.077903204 0.61048156 10460065
0.27498275 -0.077815913 0.61045122 10920101
0.28399491 -0.077195257 0.61085469 10592160
0.029733414 -0.14009993 0.62600005 6250845
0.036046982 -0.14212105 0.62412506 6185050
0.045246787 -0.1450357 0.62616664 6250329
0.054719705 -0.14373937 0.62511772 6117461
0.06500648 -0.1413953 0.62657148 9142660
0.073447183 -0.14038889 0.62637502 6971747
0.081542835 -0.14241153 0.62900001 7171174
0.094069563 -0.14036849 0.62720001 6776158
0.0045765089 -0.13112895 0.6273334 5724759
0.01498702 -0.13227156 0.62390471 5067083
0.024162805 -0.13678592 0.62685716 5790813
0.031215494 -0.13942851 0.62300003 6316124
0.066632807 -0.13917676 0.62187505 8550261
0.076877743 -0.13929079 0.62238467 7038563
0.085403815 -0.1394285 0.62299997 6774623
0.095982693 -0.13776565 0.62282354 7300967
0.10537644 -0.13668591 0.6242758 7696239
0.11379544 -0.13307786 0.62579328 7828080
0.12008801 -0.13092999 0.62900001 8419180
-0.35272914 -0.12136624 0.62831265 4800059
-0.34573275 -0.12119188 0.62839997 5656133
-0.33612749 -0.12108868 0.62900001 4736578
-0.27274472 -0.12108868 0.62900001 5064761
-0.26345012 -0.12108871 0.62900007 5064249
-0.25376081 -0.12150796 0.62823081 5195323
-0.24452309 -0.12233359 0.62771118 4340787
-0.23514014 -0.12263792 0.62736189 4932666
-0.22530784 -0.12190933 0.62772095 4275765
-0.21596333 -0.12118527 0.62843764 4539197
-0.20459506 -0.12139047 0.62843758 4405814
-0.19535501 -0.12155798 0.6280334 5063741
-0.1854164 -0.12189573 0.62800002 3750448
-0.17416942 -0.12119349 0.62741667 4079414
-0.16620784 -0.12264445 0.62511772 4670779
-0.15469572 -0.12296543 0.62258339 4144950
-0.14468654 -0.12518202 0.62559104 4209721
-0.13561492 -0.12471149 0.62466663 4802113
-0.12515755 -0.12418824 0.62370598 4539707
-0.11539146 -0.12761094 0.62581491 4868413
-0.10434005 -0.12688451 0.62521058 4803134
-0.095539376 -0.12371258 0.62484998 4803138
-0.085991345 -0.12110959 0.62728578 4934468
-0.025173226 -0.12155507 0.62657136 5921879
-0.014955194 -0.12347115 0.62444007 5592660
-0.0049596955 -0.12662934 0.62465221 6251360
0.004352042 -0.12881428 0.62300009 5724502
0.11677251 -0.12844363 0.62225008 8484470
0.12545259 -0.12582125 0.6241591 10195347
0.13450441 -0.12343068 0.62547505 9143429
0.14413935 -0.12145268 0.62711114 8620167
0.1512522 -0.12108868 0.62900001 10197660
0.16601418 -0.12108868 0.62900001 10459551
-0.35219216 -0.11537311 0.62559581 5393481
-0.34499282 -0.11499298 0.62478346 5590599
-0.33497334 -0.11541477 0.6252501 5261888
-0.32500473 -0.11456401 0.62534535 5130819
