# .PCD v0.7 - Point Cloud Data file format
VERSION 0.7
FIELDS x y z rgba
SIZE 4 4 4 4
TYPE F F F U
COUNT 1 1 1 1
WIDTH 1100
HEIGHT 1
VIEWPOINT 0 0 0 1 0 0 0
POINTS 1100
DATA ascii
-0.32495531 0.076079845 0.59686446 9142653
-0.3150166 0.076120727 0.59644568 9011581
-0.30495453 0.075757779 0.59581107 9142911
-0.29483774 0.076213568 0.59567517 9077632
-0.2852194 0.076831184 0.59656197 9077631
-0.27506801 0.076714315 0.59738606 9011840
-0.26488242 0.075763702 0.59693515 9012352
-0.25490505 0.075584196 0.59608555 8947073
-0.24483785 0.075461507 0.59598529 8946816
-0.23507889 0.075911365 0.59640795 8881539
-0.22521958 0.075407252 0.59732234 8881795
-0.21519347 0.075421914 0.59764141 8816002
-0.20476125 0.075926811 0.59740746 8684933
-0.19490193 0.076483354 0.59697336 8684934
-0.184879 0.075725444 0.5978061 8488067
-0.17467488 0.075322688 0.59790891 8291459
-0.16504329 0.074995063 0.5977903 8357252
-0.15514816 0.075908668 0.59811205 8291201
-0.1450215 0.076682419 0.59850752 8028030
-0.13498774 0.075725168 0.59801126 7634554
-0.12542778 0.075175367 0.59500855 5659990
-0.11657958 0.07655248 0.59166199 3817269
-0.10992759 0.079279497 0.59000003 3357234
-0.030173058 0.07672327 0.59000003 2763554
-0.02386196 0.076810993 0.59029269 2698018
-0.014661523 0.076323956 0.59174734 2500898
-0.0048565818 0.076018661 0.59253955 2304033
0.0051648812 0.075629927 0.59167188 2369826
0.014968235 0.07582821 0.59121531 2501413
0.024900554 0.076479092 0.59134614 2698791
0.033145763 0.077257007 0.59076917 2698791
0.18868694 0.077956282 0.59094453 4472370
0.19528581 0.075540632 0.59383678 6512473
0.20477916 0.075847164 0.59696877 8421506
0.21499014 0.076257572 0.59714621 8553093
0.22498345 0.075668775 0.5965001 8618885
0.2350876 0.075530186 0.59644628 8618627
0.24510354 0.075362787 0.5960148 8684165
0.25498575 0.075500138 0.59616554 8684166
0.26499984 0.075568721 0.59677523 8683910
0.2751483 0.075549021 0.59667158 8683652
0.2846722 0.075353928 0.59639537 8749447
0.2901369 0.071768872 0.59900004 8552326
-0.33055469 0.084212445 0.59233338 9076858
-0.32519594 0.084091455 0.59230202 9208445
-0.31526273 0.083143748 0.59176528 9208445
-0.3052721 0.082311578 0.59132618 9077374
-0.2951726 0.081923313 0.59132534 9208960
-0.28447792 0.082242809 0.59159595 9143423
-0.27475023 0.082876042 0.59259713 9077631
-0.26515913 0.082945406 0.59196949 9077888
-0.25484604 0.082761727 0.59149128 8881281
-0.24518837 0.082933784 0.59137851 8946558
-0.23515488 0.082806103 0.59180295 8946815
-0.22477198 0.082778864 0.59286427 8947071
-0.21494889 0.083172269 0.59355456 8750207
-0.20550734 0.083818965 0.59272343 8619139
-0.19498619 0.08324533 0.59207654 8684675
-0.1846056 0.083247267 0.59331739 8487810
-0.174871 0.083959378 0.59392035 8488324
-0.16513073 0.084307276 0.5941444 8423046
-0.15496904 0.083391294 0.59388983 8291714
-0.14472921 0.083735801 0.59425223 8225921
-0.1349529 0.083618842 0.59344447 7962234
-0.12521623 0.083397225 0.5924027 7962749
-0.11650547 0.082650103 0.59119993 5791833
-0.10992759 0.080813237 0.59000003 3686712
-0.013172165 0.081778705 0.59090322 2765097
-0.0047452808 0.08278124 0.59141362 2962476
0.0052099 0.083096348 0.59094781 3160112
0.014981797 0.083251804 0.5909847 3225907
0.024449414 0.082569353 0.59119982 3159855
0.034036048 0.081558354 0.59040004 2896682
0.1879475 0.082177714 0.59052634 4407092
0.19515409 0.083023354 0.59136498 6710106
0.20484929 0.082978643 0.59209532 8421505
0.21508655 0.0828408 0.59203082 8487299
0.22498569 0.082619764 0.59159976 8618628
0.23515999 0.082607716 0.59169483 8749957
0.245297 0.082706593 0.5915395 8815494
0.25531483 0.083141185 0.59192526 8749702
0.26503703 0.083135895 0.59223735 8749959
0.27470028 0.082628869 0.59237868 8815239
0.28356144 0.082115404 0.59158814 8946823
-0.11468112 -0.012205351 0.60304761 12039826
-0.1042495 -0.012972529 0.60260612 10986100
-0.095557302 -0.012202597 0.60510534 10853997
-0.084512293 -0.012804305 0.60842848 10985583
-0.07475768 -0.013637681 0.60879469 10986096
-0.064975142 -0.014134158 0.60854983 10986609
-0.05647485 -0.016145756 0.60900009 10855024
-0.048559193 -0.017904792 0.60900003 10526829
-0.027978469 -0.019487925 0.60900003 10526316
-0.13228746 -0.0036085634 0.60100001 8951186
-0.12318406 -0.0088653266 0.60425001 11909022
-0.11253875 -0.0045756944 0.60080957 11051891
-0.10456925 -0.0046479423 0.60388017 10985838
-0.095778108 -0.0065505086 0.60697931 11117424
-0.087299295 -0.0091205006 0.60868192 11051375
0.16628197 -0.00088591425 0.60875005 13485718
0.17202395 -0.00049033243 0.60900003 12564359
-0.14038089 0.0010928002 0.60900003 8884361
-0.11193511 0.0057290266 0.6029039 11512695
-0.10726029 0.0031634693 0.60692161 11512695
-0.099219434 0.0010928002 0.60900003 12434313
0.15883118 0.0084807528 0.60900003 12893323
0.16573028 0.0056025749 0.607602 14801065
0.17428666 0.0049090157 0.60335404 14142879
0.18301705 0.0065570106 0.60470968 12761225
-0.11241466 0.015039908 0.6046145 13223833
-0.083863996 0.017122682 0.60830551 14474671
-0.078638718 0.018507259 0.60900003 13948839
0.15775964 0.015939681 0.6072877 14801067
0.16497569 0.0151994 0.60377371 14997931
0.17370497 0.01406836 0.60141402 14931624
0.18601216 0.013581958 0.60133344 14536354
0.19148347 0.018373979 0.60462505 14405028
-0.111816 0.02416908 0.60224998 13553569
-0.10607128 0.026125826 0.60646307 13618850
-0.09450902 0.026572339 0.60586435 14080684
-0.085047789 0.024983298 0.60528594 14014634
-0.076267727 0.026480472 0.60701156 13619362
-0.0642303 0.027644241 0.60690731 14409903
-0.055450343 0.026730949 0.60616863 12896410
-0.049268425 0.029540604 0.60800004 13752231
-0.021954527 0.028643265 0.60814291 10264449
-0.017356718 0.028871464 0.6075455 13292453
0.016349249 0.029589189 0.60900003 13620647
0.038513102 0.029589187 0.60900003 5198145
0.043460201 0.028919112 0.60848159 13883818
0.1378486 0.028386265 0.60803854 13025682
0.14539391 0.026596688 0.60653394 14669737
0.15507329 0.025016339 0.60450321 14274722
0.1624261 0.022834875 0.6005314 15589553
0.17130142 0.021353226 0.60000002 15129002
0.19504564 0.025123686 0.60445005 13616287
-0.14163134 0.038296983 0.60587507 8161671
-0.13842154 0.036200218 0.60049999 8359051
-0.10399711 0.031674884 0.60259378 13948072
-0.095551208 0.032139145 0.60164016 14277807
-0.084777787 0.031433947 0.60089999 14080170
-0.074569285 0.03413862 0.60310692 13750948
-0.065384425 0.033917855 0.60264212 14475440
-0.055029832 0.032079726 0.60109091 13751461
-0.045452703 0.035225179 0.60445952 12172688
-0.034584414 0.038326763 0.60682154 13489580
-0.025474029 0.034630932 0.60413641 10594438
-0.015049816 0.032539949 0.60305178 13094302
-0.0054000248 0.035616454 0.60460526 12502682
0.0054232213 0.03469336 0.60410649 12765853
0.01554892 0.032556679 0.60387731 13488802
0.024772847 0.035324238 0.60475403 11910035
0.035488904 0.035101667 0.60461551 11910034
0.045341469 0.034723923 0.60410684 13619875
0.054585431 0.036111452 0.60580772 13948582
0.064868115 0.036227278 0.60618633 13554336
0.07305564 0.037333075 0.60784382 13882790
0.089173339 0.039087981 0.60900003 14210210
0.095678002 0.037906647 0.60741478 13421722
0.10460251 0.037543889 0.60745716 14276518
0.11584729 0.036388416 0.60686493 13486489
0.12461932 0.036166038 0.60615665 14407336
0.13534939 0.035155937 0.60508865 14209697
0.1443993 0.033337526 0.60180497 14275236
0.15340175 0.032958411 0.60106391 14537893
0.19804649 0.033241801 0.60355008 9801343
0.20219517 0.036915608 0.60678577 9275776
-0.14193398 0.044815846 0.60574371 7898757
-0.13850799 0.046087015 0.60087502 7897727
-0.073697902 0.040136844 0.60100001 13619621
-0.068260707 0.040543478 0.60125005 14672561
-0.041181933 0.040428758 0.60070002 13224862
-0.034943528 0.040808089 0.60169995 14080683
-0.029124729 0.040070064 0.60000002 13752230
0.048355758 0.040341154 0.60016662 13488031
0.055510089 0.041411802 0.60119164 14145705
0.065377466 0.041610651 0.60156 13487773
0.075691767 0.043755855 0.6034286 13619360
0.0852198 0.046069585 0.60605228 13224343
0.094333239 0.043951396 0.60311317 13092244
0.10514827 0.044907786 0.60333914 14079140
0.11437757 0.044142347 0.60280001 13749661
0.12548205 0.042521324 0.60146421 13947042
0.13359444 0.04236225 0.60150003 14012576
0.20584372 0.044538055 0.60422224 11380366
0.21064132 0.048485104 0.60775 8946815
-0.320858 0.059668705 0.60900003 9406340
-0.31848332 0.059668705 0.60900003 9275011
-0.29157007 0.059668705 0.60900003 9406592
-0.28523752 0.059668705 0.60900003 9208959
-0.27359018 0.059668712 0.60900003 8947072
-0.26861462 0.059668705 0.60900003 9011840
-0.22270377 0.059668705 0.60900003 8882308
-0.21716283 0.059668709 0.60900003 8948362
-0.16555269 0.059668712 0.60900009 8423045
-0.15462907 0.059668705 0.60900003 8292232
-0.14335459 0.056046072 0.607898 8029057
-0.1378645 0.055459473 0.6021843 7041906
0.078529805 0.051789336 0.60025001 13421979
0.085162118 0.054561403 0.60228324 14013347
0.09121947 0.051891636 0.60014284 12828814
0.10766415 0.05098822 0.59999996 14342311
0.11177147 0.050988216 0.60000002 14802605
0.20776811 0.055576388 0.60203582 8487554
0.21354848 0.056754254 0.60766661 8553349
0.22484735 0.059636049 0.60866666 8553607
0.23457213 0.059498072 0.60872734 8487814
0.24400373 0.059668712 0.60900009 8552836
0.28600946 0.059668705 0.60900003 8552069
0.29102278 0.059668705 0.60900003 8420481
-0.33333814 0.064938247 0.60502279 9274494
-0.3250401 0.065543428 0.60478789 9208702
-0.31514862 0.065674253 0.60466409 9077374
-0.30513358 0.066175871 0.60487396 9077632
-0.29502943 0.065753832 0.60476977 9143425
-0.2850197 0.065524817 0.60461283 9143423
-0.27513281 0.06544552 0.60467702 8946303
-0.26503095 0.065446146 0.60432392 8881024
-0.25509253 0.06605833 0.60438019 9012356
-0.24504793 0.066006429 0.60465622 8947075
-0.23495975 0.066254452 0.60414171 8816003
-0.22485538 0.065415017 0.60382795 8816516
-0.21498848 0.065581881 0.60410172 8685190
-0.20500454 0.066204786 0.60453856 8619654
-0.19487664 0.066331618 0.60433948 8619397
-0.18489634 0.065541983 0.60420012 8488581
-0.17513116 0.065463714 0.60395372 8291460
-0.16494529 0.065481104 0.60337967 8357252
-0.15502276 0.065588042 0.60378224 8291971
-0.14510648 0.065628961 0.60375851 7765627
-0.13707906 0.065243535 0.60133886 7371381
0.085515901 0.060346637 0.60000002 14276775
0.20738944 0.065724187 0.60080338 8356227
0.21521121 0.065426148 0.60309517 8356228
0.22503084 0.065182775 0.60331029 8487557
0.23502506 0.065333672 0.60306132 8553092
0.24499038 0.065364972 0.60407197 8553092
0.25497732 0.065426335 0.6041702 8749958
0.26491627 0.065242469 0.60443658 8749702
0.27497828 0.065262504 0.60396194 8683910
0.28507894 0.065381423 0.60363388 8618374
0.29257959 0.063917361 0.6052801 8749446
-0.33171365 0.071264796 0.59999996 9274238
-0.32486847 0.071751483 0.60023528 9142654
-0.31608292 0.071384616 0.6001333 9011325
-0.30532813 0.071264796 0.59999996 9143167
-0.29442334 0.071356021 0.60014296 9077889
-0.28422487 0.07197386 0.60017663 9012351
-0.27544585 0.071834557 0.60010725 9077631
-0.26698455 0.071264796 0.59999996 9077889
-0.25435072 0.071264796 0.60000002 9143682
-0.24826771 0.071264796 0.60000002 9340548
-0.23449002 0.071264796 0.59999996 8816262
-0.22487165 0.071264796 0.59999996 9145220
-0.21329363 0.071264796 0.59999996 8816002
-0.20459509 0.071438104 0.60000008 8750982
-0.19516577 0.071831957 0.60000014 8685190
-0.18584433 0.071671672 0.60000014 8488323
-0.17685409 0.071264796 0.59999996 8422786
-0.16196229 0.071264796 0.59999996 8554887
-0.15421563 0.071763888 0.60000014 8291713
-0.1450246 0.072338767 0.60018617 7699320
-0.13781375 0.072085708 0.60000008 7634040
0.20834517 0.071264796 0.60000002 8553092
0.21481806 0.071264796 0.60000002 8355971
0.22288413 0.071264796 0.59999996 8487042
0.25942653 0.071264796 0.60000002 8750214
0.26410577 0.071264796 0.59999996 8683398
0.27034467 0.071264796 0.60000002 8946825
-0.034144025 -0.021596756 0.61599994 10394729
-0.024474034 -0.022370117 0.61351037 10329193
-0.014642242 -0.022846801 0.61414832 10394729
-0.0053695994 -0.022804592 0.61647993 10394730
0.0018414967 -0.021833885 0.61836362 10460523
0.019185903 -0.023018738 0.61880004 10526316
0.025509682 -0.022821607 0.61850005 10526059
0.031099861 -0.023026178 0.61900002 10526057
-0.12257918 -0.011686273 0.61500001 8685948
-0.11926371 -0.012954895 0.61440003 9936006
-0.10415807 -0.015449491 0.61362505 11381118
-0.094803564 -0.014608094 0.61254549 10788205
-0.084606268 -0.013921911 0.61267501 10985582
-0.074969754 -0.012855324 0.61198056 11051889
-0.065086544 -0.013830704 0.61195463 11052402
-0.054766301 -0.014466069 0.61185586 10921073
-0.044864148 -0.014726618 0.6126911 10855537
-0.035297088 -0.014807566 0.61291975 10855536
-0.024966842 -0.014806413 0.61341751 11052915
-0.014755484 -0.014983297 0.61620146 11250294
-0.0051136035 -0.015400615 0.61748701 11382136
0.0039294809 -0.015972756 0.61795706 11382393
0.010503018 -0.017233316 0.61900002 11118964
0.025199724 -0.019807922 0.61900002 10789485
0.13629845 -0.012291542 0.6186192 12104577
0.14240614 -0.010471698 0.61879998 12039041
-0.10096809 -0.00049113756 0.61000001 11249523
-0.093670025 -0.0023046141 0.61042857 12039297
-0.084698044 -0.0042965673 0.61116213 12302726
-0.075227603 -0.0045811185 0.61410171 12697999
-0.064900719 -0.0059079211 0.61528254 12697999
-0.054679938 -0.0049990909 0.61638165 12764305
-0.045570716 -0.0062092156 0.61652237 12698769
-0.035263844 -0.0067682387 0.61694741 12567183
-0.025158715 -0.0065098661 0.61756355 12699025
-0.017697455 -0.0081803063 0.61855555 12764306
0.13830027 -0.0080030477 0.61866671 14210215
0.14674617 -0.0045893686 0.61765766 14144162
0.1549934 -0.0034042753 0.61473125 13683355
0.16439424 -0.0028923021 0.61357397 12828302
0.17477432 -0.0016309211 0.61406463 11840122
0.18198736 -0.0007648273 0.61683339 11642230
-0.10389304 0.0063576368 0.61296308 12171142
-0.094619043 0.0049436535 0.61290413 11842434
-0.084662683 0.0050798208 0.61250907 13553053
-0.077722147 0.0049349088 0.61644071 12764051
-0.053901378 0.0075447927 0.6188333 14080424
-0.017978551 0.0091563854 0.61900002 14672819
0.14707415 0.0054459996 0.61766237 11774331
0.15490955 0.0049967617 0.61276412 13617562
0.16254637 0.0032836916 0.61044818 14867372
0.18543547 0.0035666116 0.61294997 11708536
-0.11048248 0.013780452 0.61000001 13026711
-0.1051036 0.014707165 0.61570609 10460015
-0.094664857 0.014654952 0.61513108 10196841
-0.084771328 0.013651413 0.61176324 14145449
-0.075507522 0.015282355 0.61477906 13159068
-0.063944019 0.017462183 0.61688888 14080939
-0.054401059 0.015023724 0.61593938 13883559
-0.048455194 0.016801145 0.61777276 13883816
-0.022220509 0.016295088 0.61795467 13356702
-0.016825501 0.015450781 0.61805463 13751973
0.0085720643 0.012374642 0.61900002 12501650
0.013346648 0.014383528 0.61890632 13423265
0.025441686 0.018256351 0.61838895 13949866
0.035417207 0.018027054 0.61800009 12896408
0.042295717 0.018409628 0.61800003 14343853
0.11718822 0.018811153 0.61900002 14078884
0.1220156 0.018811155 0.61900002 14143907
0.13776806 0.01728861 0.61788893 13486233
0.14485584 0.014680483 0.61608261 14604457
0.15300041 0.014098137 0.61196291 14078113
0.18922091 0.010608988 0.61000001 12826506
0.19761296 0.017714158 0.61575007 12695176
-0.14336269 0.023493586 0.61500001 8819856
-0.10400875 0.022081485 0.61194241 12960920
-0.095987745 0.021901378 0.61148888 13290912
-0.085128859 0.020523937 0.61012506 13685412
-0.073738202 0.02258357 0.61151797 13619618
-0.066082507 0.02277844 0.61223614 14672818
-0.054230299 0.021943135 0.61150831 11711882
-0.046903629 0.025277788 0.61542255 6974286
-0.030047012 0.025649952 0.61900002 5658948
-0.02494208 0.02478811 0.6147964 5922118
-0.014565206 0.024665408 0.61477786 5921604
-0.009111492 0.028870519 0.61785716 3552804
0.0085415971 0.029325029 0.61680001 3816498
0.015698429 0.025690841 0.61488366 9146223
0.025298435 0.025494462 0.61565214 6645584
0.034815725 0.02499282 0.61482257 6909009
0.044790287 0.024308013 0.61328167 13817510
0.054694407 0.026720755 0.6155864 14014632
0.065476343 0.026468135 0.61534035 13488031
0.074455544 0.027679747 0.6161406 13948326
0.085462511 0.02795803 0.61745828 14211752
0.094834678 0.02642923 0.61673409 13553309
0.10516271 0.027040616 0.61709654 14408361
0.11540646 0.025616858 0.61565262 13618332
0.12477279 0.025552638 0.61556888 14538921
0.13455774 0.024470352 0.61451644 14078112
0.14409971 0.021665784 0.61131501 14735787
0.15148047 0.020440528 0.61000001 14866857
0.19784646 0.020899091 0.61285722 13089423
0.20229995 0.026185025 0.61543995 10000270
-0.15073162 0.039729819 0.61900002 8490122
-0.14667138 0.037979666 0.61545002 8424586
-0.0429429 0.033018827 0.61397058 4672572
-0.035277773 0.034732454 0.61488235 6121564
-0.02864323 0.032379225 0.61188889 4081985
-0.01059292 0.031257629 0.61066669 5592122
-0.0050266623 0.032760359 0.614375 5791564
0.0043731877 0.032235891 0.61426473 5791823
0.010033162 0.031223506 0.61000001 11448712
0.02633504 0.032035891 0.6120742 4674120
0.032967877 0.031956922 0.6116364 4345412
0.049676467 0.031223506 0.61000001 12895895
0.056015745 0.032179002 0.61110008 14343596
0.064785913 0.032275923 0.61093336 13620129
0.075721569 0.034237556 0.61191779 13751203
0.085138984 0.035039932 0.61380619 14343081
0.094705164 0.033770669 0.61193061 13421466
0.10520607 0.034208849 0.61235529 14276775
0.1134626 0.033102419 0.61124504 13881760
0.12600887 0.031961005 0.61051732 14604972
0.13139518 0.032029171 0.61025006 15460277
0.20602787 0.035375599 0.61454546 8882567
0.21180208 0.039188661 0.61771435 8619911
-0.34195969 0.048703875 0.61853337 9208702
-0.33448812 0.048630986 0.61837506 9274496
-0.32492828 0.048520695 0.61825013 9208961
-0.31473026 0.048134621 0.61786062 9143424
-0.30510899 0.047978505 0.61802185 9209217
-0.29511002 0.048547041 0.61807489 9143682
-0.28464639 0.04840491 0.61839473 9078403
-0.27510998 0.04848465 0.61836118 8881281
-0.26519173 0.048465416 0.6183784 9012867
-0.25460061 0.0473077 0.6179828 9013126
-0.24473216 0.046675451 0.61749434 8947589
-0.23515519 0.047031302 0.61789399 9013640
-0.22520141 0.047772724 0.61815679 9013896
-0.21541332 0.047093183 0.61825371 8882568
-0.20508122 0.047162477 0.61791438 8686217
-0.19516388 0.047688399 0.61823732 8686217
-0.18544653 0.047969788 0.61842549 8620682
-0.17507643 0.04801571 0.61850005 8358024
-0.16461782 0.047422551 0.61822724 8489866
-0.1544504 0.046275355 0.61782199 8293256
-0.14732343 0.045357727 0.6130228 8030086
0.084857658 0.041281316 0.61022216 13750687
0.10755569 0.040737897 0.61000001 14144677
0.20900235 0.042234585 0.61162508 10328463
0.21516684 0.045403477 0.61553138 8947845
0.22413397 0.048112243 0.61789471 8619655
0.23561339 0.047792785 0.61812502 8553606
0.24510182 0.046968013 0.61791307 8619144
0.25530326 0.047042105 0.61791039 8619144
0.26491609 0.046704493 0.61774093 8619145
0.27455515 0.047464669 0.61819232 8684681
0.2850371 0.047737088 0.61816669 8684424
0.29509199 0.047007777 0.61787331 8749704
0.30080035 0.046870828 0.61769998 8750218
-0.34135929 0.053486973 0.616 9208447
-0.33508182 0.055453349 0.61421424 9208447
-0.32496884 0.055180479 0.61354637 9274752
-0.31491691 0.055377677 0.61368144 9143424
-0.30506372 0.055404507 0.61421347 9209215
-0.29502144 0.05524876 0.61363679 9275009
-0.28509599 0.055203702 0.61389339 9143937
-0.27503654 0.054983709 0.61390162 8946816
-0.26494825 0.055336479 0.61375177 8947330
-0.25488397 0.055493783 0.61389536 9013125
-0.2448407 0.055369928 0.61394578 8947332
-0.23498836 0.055306401 0.61457753 8882052
-0.22494474 0.055209454 0.61421138 8947845
-0.2147842 0.055280291 0.61394554 8817031
-0.20525208 0.055479731 0.6148982 8751497
-0.19514118 0.055337988 0.61568075 8620424
-0.18493283 0.055472877 0.6152674 8489095
-0.17505233 0.055418994 0.61453521 8357766
-0.16496547 0.055042677 0.61438197 8226695
-0.15522711 0.055363126 0.61418843 8160900
-0.14749239 0.054417133 0.61198163 8029314
0.21682189 0.05395345 0.61221439 8553605
0.22505116 0.054631639 0.61366063 8487814
0.23516634 0.054514319 0.61353898 8684935
0.24531539 0.054796461 0.61344063 8618887
0.25525275 0.0552876 0.61375165 8618886
0.26500729 0.055305872 0.6138106 8618886
0.27506185 0.055562422 0.61423659 8749959
0.28496447 0.055217646 0.61419827 8683910
0.29481715 0.055023365 0.61398369 8815240
0.30045947 0.05082896 0.61700004 8749448
-0.33248499 0.061352413 0.61000001 9208700
-0.3116062 0.061352413 0.61000007 8946301
-0.30513108 0.061352421 0.61000001 9011839
-0.29918462 0.061352413 0.61000001 9209985
-0.26112702 0.061352413 0.61000001 8880768
-0.25430617 0.061373968 0.61021435 8881541
-0.24429604 0.061383363 0.61030775 9013125
-0.23535886 0.061352421 0.61000001 8750210
-0.22941239 0.061352413 0.61000001 8684678
-0.21091218 0.061352413 0.61000001 8488581
-0.20422776 0.061216436 0.61031574 8488582
-0.19554666 0.061300304 0.61031574 8488326
-0.18659762 0.061352413 0.61000001 8290948
-0.17629036 0.061352413 0.61000001 8291460
-0.1612259 0.061352413 0.61000001 8159876
-0.15646872 0.061352413 0.61000001 8226179
0.26771462 0.061352413 0.61000001 8749188
-0.071410514 -0.020127922 0.62900001 10920821
-0.064886712 -0.021126073 0.62772733 10789493
-0.05474681 -0.021879481 0.62377274 10657904
-0.044970479 -0.022102905 0.62430769 10526317
-0.035030346 -0.023495726 0.62424999 10328937
-0.024541102 -0.025583947 0.62440002 10197609
-0.01419673 -0.02672096 0.62322724 10328939
-0.0053432854 -0.026626982 0.62396562 10329195
0.0048056366 -0.023427933 0.62299997 10394985
0.015123103 -0.023005806 0.62257707 10460523
0.025460368 -0.024506191 0.62280005 10591851
0.035094932 -0.023490638 0.62207144 10723178
0.045012519 -0.023269776 0.623074 10723179
0.055559956 -0.023358079 0.624807 10788715
0.064814664 -0.022908038 0.62706763 10854764
0.074611664 -0.02206715 0.62834996 11183729
0.084680885 -0.021749679 0.62778181 11117680
0.09475483 -0.021617595 0.62643868 11051888
0.10395849 -0.021564974 0.62599993 10986094
0.11441199 -0.021981386 0.62504351 10985582
0.1248477 -0.020951619 0.62730777 11051119
-0.11769561 -0.015077343 0.62300003 10002061
-0.10338015 -0.017318143 0.623375 11118973
-0.094606526 -0.017085979 0.62287998 10657134
-0.085564949 -0.018095519 0.62545449 10788463
-0.074770741 -0.018313129 0.62288886 10920304
-0.064904511 -0.019658228 0.62207699 10855284
-0.043795243 -0.019839922 0.62 10526316
-0.010754821 -0.010169555 0.62 12566924
-0.0048939921 -0.010169556 0.61999995 12699281
0.0062919436 -0.012125153 0.62012136 12764561
0.015187429 -0.014981274 0.62109959 12369289
0.025555898 -0.014761776 0.62195051 12830097
0.035314851 -0.015055907 0.62236565 12895890
0.045096722 -0.015081528 0.62338924 13093269
0.054977749 -0.015057745 0.6257661 12961427
0.064386554 -0.015086961 0.62789243 13356442
0.074032687 -0.017435435 0.62878567 13159064
0.085106589 -0.017834829 0.62886655 12697998
0.095020473 -0.017226664 0.62790573 12697997
0.10612704 -0.015442489 0.62725949 12960914
0.11498889 -0.015153343 0.62383723 12763278
0.12480537 -0.01452803 0.6223287 12499593
0.13434343 -0.014229388 0.62192309 11906942
0.14480542 -0.012168839 0.62343484 11446133
0.15423366 -0.010686634 0.62664998 11182704
0.16077705 -0.010317178 0.62900001 11379828
-0.14662622 -0.00050643529 0.62900001 8423295
-0.071347512 -0.00085779798 0.62055552 12566671
-0.064860798 -0.0011767265 0.62132263 12303242
-0.056159765 -0.00076787733 0.62008327 11974532
-0.044507902 -0.0016376838 0.62184101 11645311
-0.034971636 -0.0021431572 0.62218982 11645311
-0.024199542 -0.0018246955 0.62031132 11842432
-0.014534413 -0.0041982317 0.62087864 12171912
-0.0051267827 -0.0045369142 0.62171298 10987126
0.0045751208 -0.0045437953 0.62242627 11447678
0.014191147 -0.0047011576 0.62497127 12632976
0.024127377 -0.0074778185 0.62784094 11250039
0.036652092 -0.0060849916 0.62756258 12039300
0.044769306 -0.0054365983 0.62769872 11907712
0.053725526 -0.0083541106 0.62893331 9406552
0.062669635 -0.0086820545 0.62900001 10591597
0.10815424 -0.0063728332 0.62894118 10854257
0.11487358 -0.0045538452 0.62814367 12367751
0.12509844 -0.0046064048 0.62613744 11906688
0.13481496 -0.0044257445 0.62270528 13552026
0.14303556 -0.0042615905 0.62047088 13946529
0.15533026 -0.0084920591 0.62172222 11577462
0.16482253 -0.0070484136 0.62382764 11379570
0.17405419 -0.0045578098 0.62349999 11576694
0.18492894 -0.0011942018 0.62300003 11773817
-0.14681375 0.0032816846 0.62400001 8753293
-0.072958112 0.0053250003 0.62288058 10130792
-0.065337576 0.0051917699 0.62560165 9472605
-0.055294383 0.0048473026 0.62089562 12632464
-0.045919534 0.0047889967 0.62539232 12040586
-0.033381872 0.0042788996 0.62735623 11382655
-0.024551645 0.0051619061 0.62230575 11908486
-0.014759053 0.005078386 0.62167948 12764564
-0.0051451353 0.0051748864 0.62387991 10987126
0.0045709768 0.0051578097 0.62225038 11974792
0.014134093 0.0053363768 0.62419426 13159836
0.022386355 0.0084357541 0.62814283 11711618
0.037010621 0.0071540158 0.62791842 12830100
0.043224275 0.006134904 0.6283778 14015143
0.066848285 0.008850106 0.62899995 13487774
0.070845254 0.0093043074 0.62900001 14474670
0.093191944 0.0093043074 0.62900001 13816994
0.10911115 0.0079881996 0.62839997 13091733
0.11486564 0.0050212569 0.62674767 13223318
0.12533736 0.0052019516 0.62757373 11182705
0.13502955 0.0051683742 0.62340516 12630410
0.142443 0.0046335338 0.62036759 10655338
0.18869762 0.0019216618 0.62133336 11708537
-0.14989646 0.010939431 0.62900001 8687499
-0.072039649 0.012595327 0.62179309 11974023
-0.065361075 0.012903602 0.62252402 12500880
-0.058611777 0.011327878 0.62044448 12369549
-0.044171687 0.014445551 0.62385005 11908999
-0.034264971 0.015424415 0.62560606 11909255
-0.026004905 0.013784624 0.62146872 12238221
-0.012628029 0.014119606 0.62098128 12698772
-0.0051440364 0.014908548 0.62398183 14212782
0.0044537308 0.014940022 0.62224787 13225886
0.015529875 0.015058431 0.62085855 12435601
0.02554952 0.014122783 0.62395662 13751974
0.035188958 0.013488871 0.62281591 13027993
0.045340575 0.014537624 0.62414294 13883044
0.055093538 0.016198125 0.62625021 14541231
0.064904556 0.015043488 0.62579042 13356446
0.073120952 0.016235163 0.62710172 14146219
0.086696111 0.016973186 0.62716663 13421981
0.094728976 0.015040372 0.62526613 13619616
0.10557435 0.015374477 0.62579584 14671277
0.11473413 0.014754923 0.62219453 13552795
0.12504406 0.014739198 0.62323546 14736557
0.13398455 0.014126379 0.62176532 13551769
0.14074759 0.010782905 0.62 14078113
0.19941099 0.01566847 0.62200004 12300419
0.20337379 0.017306251 0.62629414 11379840
-0.14810419 0.022908347 0.62833339 8622479
-0.042678695 0.024065606 0.62137502 8750951
-0.03538217 0.024426647 0.62268728 9212016
-0.028483829 0.020990515 0.62 12764827
-0.011120693 0.021542419 0.62044448 7105617
-0.0049876105 0.024527442 0.62468255 4671286
0.0045117373 0.024612559 0.62524521 4605493
0.012281515 0.022227548 0.62068588 6645838
0.025886221 0.021194873 0.6202727 13291682
0.048368145 0.020464269 0.62033337 13027479
0.055536162 0.022015063 0.62190485 14343339
0.063970789 0.021684894 0.62123811 13553824
0.075833954 0.022822024 0.6227144 13882532
0.084698841 0.023097306 0.62300009 14277546
0.094612345 0.021021329 0.62030768 13487773
0.10501509 0.021996692 0.62095839 14737069
0.11187324 0.021314457 0.62023526 13815967
0.12785375 0.020746313 0.61999995 15525045
0.13188308 0.020453272 0.62 14801320
0.20671777 0.023888122 0.62438238 9408393
0.21112971 0.028062679 0.62800002 8948878
-0.34440368 0.037447654 0.62797511 9274753
-0.33469138 0.03680665 0.6276297 9340547
-0.32541993 0.036948308 0.62745446 9406338
-0.31514427 0.037243724 0.62775564 9340803
-0.30532503 0.0373362 0.62796962 9275525
-0.29483068 0.037765216 0.62786216 9209733
-0.28452232 0.037195913 0.6275 9078919
-0.2749446 0.037152033 0.62653834 9144453
-0.26479226 0.037400048 0.62693983 9209732
-0.25458202 0.036983743 0.62570137 9079176
-0.24483076 0.037058059 0.62465912 9079432
-0.23504335 0.037195001 0.62567103 9014152
-0.22490162 0.037285477 0.62617809 9079689
-0.21489176 0.037780512 0.62574977 8948619
-0.20478749 0.037467636 0.6260131 8817290
-0.19493195 0.037526924 0.62558436 8686731
-0.18494159 0.037699226 0.62564397 8621452
-0.17484769 0.03742294 0.62562162 8555659
-0.16495024 0.036630329 0.62518775 8555916
-0.15537588 0.03648217 0.62502199 8490122
-0.14858572 0.033434115 0.62400007 8358792
-0.041959386 0.030424649 0.62066668 3356203
-0.036596049 0.030964706 0.62180001 3225388
-0.0032974391 0.03072238 0.62184215 3423283
0.0022440415 0.030706581 0.62162507 3291954
0.20826538 0.032130152 0.6214 8685961
0.21528976 0.035422601 0.62515008 8554632
0.22490613 0.036853243 0.62694001 8619657
0.23514083 0.037014201 0.62595099 8750731
0.24479941 0.037130889 0.62519538 8685193
0.2551935 0.03736835 0.62537485 8750729
0.26478791 0.037068374 0.62561917 8816522
0.27496198 0.037526425 0.6258167 8750474
0.28502384 0.037368342 0.62567466 8881804
0.29516259 0.037608694 0.6253683 8881291
0.3028878 0.037030745 0.62590259 8881033
-0.34339657 0.043119662 0.62300009 9143423
-0.33512542 0.043367311 0.62231857 9208961
-0.32511821 0.04325071 0.62223977 9274754
-0.31505144 0.042916995 0.62248278 9209218
-0.3051419 0.042750865 0.62302613 9275011
-0.29497731 0.043323621 0.62299997 9209475
-0.28501639 0.043120075 0.62236792 9144197
-0.27495322 0.043482445 0.62168968 9143941
-0.26515663 0.043232992 0.62187666 9078662
-0.25578052 0.042834554 0.6211201 9013127
-0.24499598 0.042068396 0.62058073 8947847
-0.23453188 0.042587921 0.62091327 9013640
-0.22531451 0.04302169 0.62114942 9079690
-0.21492684 0.042612761 0.62083352 8883082
-0.20540728 0.04271055 0.6208865 8686220
-0.19514576 0.042935815 0.62096387 8620938
-0.18508108 0.043446649 0.62104785 8555403
-0.17531183 0.043559607 0.62097228 8489610
-0.16504531 0.042814489 0.62055343 8489868
-0.15647645 0.042293016 0.62035716 8490122
0.21825136 0.042045511 0.6208182 8619912
0.22541752 0.043300543 0.62174016 8554119
0.23419967 0.043175161 0.62137836 8619400
0.24518685 0.042608012 0.62060487 8750730
0.2545853 0.042648714 0.62065119 8750471
0.26489347 0.042191111 0.62078774 8619144
0.27542925 0.04286344 0.62114292 8815753
0.28495392 0.043155305 0.62083066 8683912
0.29493773 0.042547159 0.62060994 8815498
0.30146143 0.042605042 0.62071431 8618374
-0.012526392 -0.030384887 0.63837498 10263924
-0.0074199624 -0.030376557 0.63819999 10264178
-0.10469197 -0.020399921 0.63750005 8489854
-0.093993053 -0.020415921 0.63800001 12699551
-0.082218841 -0.020323923 0.6351251 10657652
-0.075434558 -0.020356022 0.63215387 10855028
-0.064690225 -0.022491172 0.63299996 10789752
-0.054807182 -0.023717409 0.63200009 10592115
-0.044589173 -0.023823895 0.63236368 10526061
-0.035404216 -0.025618868 0.63333333 10197353
-0.025013065 -0.027722068 0.63433337 10132074
-0.016117591 -0.028416036 0.63149995 10328685
-0.003342174 -0.028454898 0.63236368 10329197
0.0039580069 -0.026493687 0.63376927 10329450
0.015199065 -0.026534606 0.63360006 10394987
0.02363858 -0.028011752 0.63466668 10394730
0.034408711 -0.02748186 0.63260001 10591593
0.045978963 -0.026788546 0.63183331 10591593
0.057184726 -0.02809467 0.63530004 10591594
0.065125011 -0.027742887 0.63478571 10657131
0.075436339 -0.026217071 0.63300002 10722666
0.084568284 -0.025994362 0.63421232 10722923
0.094700232 -0.025368419 0.63325006 10788204
0.10564424 -0.024577558 0.63433343 10854253
0.11455016 -0.024524409 0.63468975 10985583
0.12512441 -0.022972254 0.63408327 11117169
0.13381553 -0.02089694 0.63490009 11116913
-0.13545606 -0.011294061 0.63800001 8555655
-0.10725552 -0.018564668 0.63144451 12568483
-0.092864431 -0.018531999 0.63033342 10854512
0.067894839 -0.011703341 0.63027787 12566412
0.075551569 -0.01339415 0.63158762 13356185
0.08502537 -0.013146534 0.63219237 13224342
0.094743542 -0.012326946 0.63153344 13421721
0.10246447 -0.011813136 0.6309644 13816480
0.13766868 -0.018551599 0.63100004 11182449
0.14470194 -0.016700134 0.63365215 11182192
0.1550332 -0.012740393 0.63321429 11248241
0.16500255 -0.01083055 0.63500005 11444850
-0.15061845 -0.00051448675 0.63900006 8883846
-0.14407271 -0.0060352101 0.63700002 8687753
0.018558098 -0.00091687258 0.63025004 10197094
0.024854401 -0.0030077023 0.63269579 11645569
0.033363272 -0.0026103 0.63200003 10657392
0.047763523 -0.0017534901 0.63080007 10459497
0.05583458 -0.0040019611 0.63203222 9340505
0.065405615 -0.0045715263 0.63151407 12632209
0.075038992 -0.0048146504 0.63457876 10854768
0.085157253 -0.0045034485 0.63671958 10591340
0.095281512 -0.0046281656 0.63385171 11841664
0.10415906 -0.0043270439 0.63165224 9735262
0.16696422 -0.0087062102 0.63075006 11379313
0.17418465 -0.0075801262 0.63442856 11576693
0.18357298 -0.0058425055 0.63622224 12564618
0.19309975 -0.0016975336 0.63700002 13025436
-0.15139519 0.0065639676 0.63405883 9016208
-0.14896847 0.0011340717 0.63200003 8752526
-0.041337814 0.0069384482 0.63066679 10197355
-0.037136029 0.0071770414 0.63085729 10131560
0.018562514 0.0017862901 0.63040006 9801825
0.024968935 0.0045698718 0.63309014 10328424
0.033735935 0.0038496046 0.63230669 11118454
0.047256518 0.0045693433 0.63111132 13224858
0.055673763 0.0052478192 0.63312036 13553824
0.065035224 0.0045055938 0.6315223 13093273
0.075391099 0.0053147655 0.63347048 12698001
0.085309781 0.0051259459 0.63477707 12105349
0.095136821 0.0049976679 0.63233334 13619358
0.10456493 0.0050280704 0.63221008 13553052
0.19733661 0.0036126382 0.6348334 12629387
0.20153889 0.0061299917 0.63900006 12431235
-0.33500275 0.019418947 0.63900006 9734278
-0.32129848 0.019418947 0.63900006 9472392
-0.31439584 0.019413589 0.63882351 9472908
-0.30697191 0.019408818 0.63866669 9538700
-0.28433856 0.019418947 0.639 9341580
-0.27353564 0.018742343 0.63859999 9144971
-0.26505679 0.019295957 0.63885719 9079436
-0.25406086 0.019267939 0.639 9145229
-0.24807079 0.018865241 0.63900006 9211021
-0.23118274 0.019418947 0.63900006 9014669
-0.22394501 0.019418946 0.639 8817033
-0.21457154 0.019418949 0.639 9080463
-0.20742874 0.019418947 0.63900006 8555659
-0.15314823 0.014894226 0.63568008 8687500
-0.040439375 0.01096552 0.63050008 9407579
-0.037307769 0.011411854 0.6304546 9736544
0.04927776 0.011370603 0.6302501 13093276
0.055458259 0.012105962 0.63125014 14607282
0.061163891 0.011508529 0.63033336 13421984
0.077182956 0.013564996 0.63169396 14409391
0.083810717 0.013651514 0.63178682 14080424
0.098357826 0.010968418 0.63066673 14145448
0.10323977 0.011353424 0.63064712 14539949
0.20759153 0.016376628 0.63390005 10854275
0.21484591 0.018253366 0.637613 9080461
0.2249994 0.019168621 0.63857138 9014671
0.23569702 0.019408094 0.63864285 8883084
0.24401608 0.019418946 0.639 8947853
0.26881424 0.019418947 0.639 8751243
0.27483296 0.019044748 0.63883328 9144718
0.28619933 0.019415148 0.63887501 9078668
0.29544997 0.018406577 0.63848013 8947596
0.30529705 0.017889066 0.6383183 8947341
0.31080756 0.017736008 0.63824999 8618633
-0.35252583 0.0259865 0.63720578 9537669
-0.34511504 0.025593206 0.63680422 9472389
-0.33474603 0.025369853 0.63594186 9603717
-0.32496274 0.025193855 0.63638139 9472647
-0.31494802 0.02505834 0.63572401 9276040
-0.30496532 0.025207594 0.63597471 9341576
-0.29512417 0.025122859 0.63693494 9472905
-0.28504199 0.025481286 0.63651502 9341835
-0.27507132 0.025452692 0.63674033 9210763
-0.26512435 0.025061702 0.63677818 9144971
-0.25524271 0.0252087 0.6365943 9079948
-0.24541442 0.02546579 0.63677365 9211019
-0.23513433 0.025590576 0.63708186 9079691
-0.22500098 0.02509586 0.63733667 8883084
-0.21485646 0.025170131 0.63696229 8818061
-0.20485169 0.025145907 0.6367749 8752525
-0.19526491 0.02635668 0.6372717 8686989
-0.18517862 0.02741557 0.63711864 8752782
-0.1747272 0.027292565 0.63688153 8687245
-0.16466378 0.02655435 0.63637853 8621708
-0.1553276 0.025648393 0.63534826 8622222
-0.14868039 0.027186122 0.63077784 8293256
0.21579675 0.024782233 0.63381016 8883341
0.22508201 0.025097435 0.63538194 8752013
0.23499472 0.02507033 0.63527137 8883085
0.24514624 0.025102213 0.63626438 8948365
0.25503692 0.025123507 0.63661927 9013902
0.26488444 0.025132667 0.63665766 8948109
0.2749525 0.025167786 0.63674563 9013389
0.28517616 0.025415577 0.63691384 9013389
0.29517272 0.025089445 0.63645083 9079182
0.30497399 0.02519015 0.63607585 8947341
0.3104423 0.02248016 0.63749999 8947853
-0.35109282 0.032276809 0.63292855 9340802
-0.3453595 0.033205099 0.63199997 9406083
-0.33510873 0.032191064 0.63150001 9340802
-0.32480267 0.032524332 0.63158619 9340803
-0.31517068 0.033133235 0.63201469 9209732
-0.30505252 0.03376985 0.63239026 9275782
-0.29507482 0.033564229 0.63234591 9209991
-0.28535622 0.032626543 0.63173229 9144712
-0.27490512 0.032303687 0.6317274 9210504
-0.26508823 0.032711767 0.63177073 9210504
-0.25491136 0.031796578 0.63139033 9145226
-0.24472207 0.031847339 0.63138098 9145227
-0.23494621 0.032042485 0.63193876 9013897
-0.22513188 0.032192156 0.63224506 9014154
-0.21524931 0.032379508 0.63201892 8948875
-0.20534034 0.032138925 0.63176012 8817802
-0.1949068 0.032232359 0.63209081 8686732
-0.1849556 0.032367423 0.63240749 8752268
-0.17520563 0.032216128 0.6320613 8686474
-0.16459312 0.031363137 0.63135499 8621451
-0.155039 0.031287022 0.63144457 8621451
0.21728776 0.031342812 0.63064289 8751755
0.22505693 0.031957649 0.63106978 8751756
0.23461066 0.031941801 0.63102174 8882829
0.24512427 0.031841677 0.631262 8751499
0.25505087 0.032116756 0.63140821 8947853
0.26533437 0.031769603 0.63138115 8947853
0.27533698 0.032309178 0.63188231 8882060
0.28497592 0.032142922 0.63202101 8947597
0.29496074 0.032240439 0.63173574 8881804
0.30394161 0.032090094 0.63144183 8881291
-0.026441906 -0.030890608 0.64900005 10463098
-0.015468003 -0.030885333 0.64180005 9935734
-0.0030017728 -0.03078584 0.64237499 10263923
0.019080756 -0.03084301 0.648 10263659
0.020733226 -0.030795412 0.64700001 10328939
0.034177296 -0.030783514 0.64674997 10526059
0.049402036 -0.03084301 0.648 10592111
0.056158874 -0.030769454 0.64645451 10723182
0.063053459 -0.030724019 0.6455 10723439
0.073535115 -0.030837722 0.6478889 10789489
-0.11086649 -0.02062392 0.64450002 8096644
-0.10458556 -0.021468177 0.64456254 8425091
-0.096480586 -0.022070758 0.64663637 8819074
-0.073287703 -0.024081701 0.64737499 8424569
-0.06693238 -0.025259977 0.64671433 9148037
-0.054145224 -0.027282173 0.64740002 10791308
-0.046055991 -0.026982475 0.64576191 10395251
-0.038855612 -0.027346788 0.64500004 10263148
0.0047420603 -0.029023504 0.64500004 10263660
0.017641572 -0.028866012 0.64150006 10329195
0.020572999 -0.028888511 0.64200002 10131558
0.032154948 -0.028798515 0.64000005 10460007
0.057110734 -0.028798515 0.64000005 10394216
0.068237998 -0.028813513 0.64033335 10722667
0.075027891 -0.028875278 0.64170599 10722924
0.086168341 -0.02883042 0.64505881 10854254
0.09429913 -0.027915606 0.64315385 10854255
0.10519407 -0.027306743 0.6440556 10985585
0.11314604 -0.027114797 0.64514285 10919793
0.12369072 -0.025388338 0.64172733 11183222
0.13267484 -0.02347945 0.64237499 12235913
0.14157218 -0.020543922 0.64200008 11314035
-0.1410747 -0.010596022 0.64600003 8818827
-0.1360904 -0.011348467 0.64100003 8687497
0.15550569 -0.016120035 0.6446923 11379828
0.1654947 -0.013601631 0.64433336 12235141
0.174142 -0.01110878 0.64518756 12761745
-0.15226737 -0.0018672151 0.64600003 8818827
-0.14616808 -0.0072254045 0.64500004 8621964
0.17717595 -0.0088476893 0.64100003 11774073
0.18525603 -0.0073956675 0.64410537 12104590
0.19510573 -0.0037423717 0.64475995 9802374
0.20049143 -0.0005203911 0.6463334 9342344
-0.35121155 0.0096001523 0.64900005 9735047
-0.34446311 0.0096001523 0.64900011 9669254
-0.33466747 0.0095853601 0.648 9735046
-0.3252475 0.0095920842 0.64845461 9603977
-0.31541881 0.0095942346 0.64859998 9472392
-0.30551821 0.0094270017 0.64870012 9604234
-0.29538494 0.00959522 0.64866668 9407111
-0.28509769 0.0095894691 0.6482777 9342347
-0.27486718 0.009585361 0.64799988 9145229
-0.26453951 0.0094965659 0.64799994 9145485
-0.25430623 0.0085009001 0.64718181 9079949
-0.24486925 0.0079854717 0.64654201 9211022
-0.23488371 0.0072950912 0.64683348 9145742
-0.22471194 0.0075196838 0.64650011 8949134
-0.21487865 0.0076198345 0.64623749 8883598
-0.20454879 0.0075591435 0.64643115 8752268
-0.19504896 0.0075476472 0.64645898 8818315
-0.18554232 0.0083201723 0.64723265 8752780
-0.17622319 0.0092213964 0.64817387 8818317
-0.16419384 0.0074492847 0.64692008 8753037
-0.15681158 0.0060216691 0.64308518 8753037
0.19883704 0.0011502216 0.64100003 13947057
0.20469047 0.0056977486 0.64562964 12235665
0.21585421 0.0089071756 0.64773339 9146254
0.22520281 0.0086068884 0.64784217 9015185
0.23519863 0.0090708006 0.64830768 9014414
0.24444973 0.009188598 0.64833325 9079950
0.25543383 0.0095943995 0.64861119 9013902
0.26582342 0.0093539553 0.64790905 9013902
0.27465457 0.0086867008 0.64758837 8882060
0.28478757 0.008783997 0.64744121 8948111
0.29520017 0.0084235212 0.64724386 8948112
0.30536291 0.0081231445 0.64673483 9078926
0.31285653 0.0077125514 0.64660007 9143948
-0.36049068 0.011287267 0.64900005 9801100
-0.35466203 0.014933969 0.64488769 9603975
-0.34523243 0.015426219 0.64383817 9603717
-0.33518922 0.015248883 0.64374268 9538182
-0.32516456 0.015211321 0.64332324 9538441
-0.31510013 0.014546821 0.64346558 9538698
-0.30479109 0.015011255 0.64293057 9538442
-0.29508424 0.015390335 0.64299047 9538699
-0.28520295 0.015204974 0.64308983 9472907
-0.27520061 0.014929418 0.64271879 9276557
-0.26515245 0.014798465 0.64269894 9145485
-0.25506094 0.014893703 0.64187485 9145742
-0.24493414 0.01524201 0.64159578 9079948
-0.2351363 0.015220474 0.64186084 9014413
-0.22514942 0.015089711 0.64185679 9014413
-0.21502851 0.01476255 0.6416325 8883598
-0.20495248 0.01516808 0.64171243 8818317
-0.19505823 0.01527824 0.64162701 8752524
-0.18503852 0.015300503 0.64255333 8687246
-0.17513733 0.015393035 0.64399052 8621711
-0.16530536 0.015571733 0.64303076 8687758
-0.15777883 0.014434598 0.64065218 8753038
0.20819208 0.012284712 0.64244449 12103821
0.21536784 0.013532964 0.64280891 9145996
0.22499661 0.014729748 0.64247757 8948878
0.23481405 0.014773011 0.64305419 8948621
0.24499437 0.014955102 0.64314985 9013902
0.25487241 0.015370915 0.64282256 9013645
0.2645728 0.015195985 0.64236784 8948110
0.27465227 0.014501339 0.6422022 9079182
0.28470615 0.014995313 0.64214826 8947853
0.29451686 0.01447862 0.64202291 9144463
0.30464959 0.013664491 0.64145333 9013134
0.31190225 0.012726886 0.64200008 9012877
-0.35333857 0.021798119 0.64000005 9472389
-0.34550926 0.021113055 0.64000005 9603719
-0.33433864 0.021113055 0.64000005 9669767
-0.2914384 0.021113057 0.64000005 9275786
-0.28395167 0.021113055 0.64000005 9473422
-0.2756331 0.021113055 0.64000005 9408400
-0.24339855 0.021113055 0.64000005 9276813
-0.2357038 0.021113055 0.63999999 9014155
-0.20076571 0.021113057 0.64000005 8884112
-0.19416824 0.021973602 0.64000005 8621710
-0.18484424 0.022645652 0.64005983 8884368
-0.17547297 0.022582555 0.6404168 8753295
-0.16565453 0.02203054 0.64030302 8753039
0.25509331 0.021113057 0.64000005 8948622
0.28504023 0.021113057 0.64000005 9079439
0.29086328 0.021113057 0.64000005 9210508
-0.032297209 -0.031247588 0.65650004 11384209
-0.025284542 -0.032224488 0.654625 9082495
-0.014510619 -0.034241483 0.65658337 7965311
-0.0072027622 -0.034692008 0.65709096 8161919
0.0033992101 -0.031793959 0.65600002 10264954
0.023976922 -0.0320202 0.65475005 10724215
0.034850068 -0.0310096 0.65149999 10525802
0.048370805 -0.031080998 0.653 10591852
0.055344153 -0.031701583 0.65300006 10921077
0.06088816 -0.032909028 0.65560007 12172176
0.076444484 -0.032647483 0.65600002 9936511
0.090800799 -0.031176191 0.65500003 12960407
0.10628513 -0.03132375 0.65810001 8949363
-0.11335387 -0.021706339 0.65542859 8227972
-0.10668883 -0.022548456 0.65170008 8161925
-0.09417247 -0.023914082 0.65585715 8162178
-0.085420936 -0.024361208 0.65488887 8095866
-0.075163215 -0.025338138 0.65417647 7899004
-0.064713582 -0.027315369 0.65364707 8161664
-0.054547735 -0.029368974 0.65737504 8096641
-0.04468888 -0.029434286 0.65610528 10331530
-0.038605347 -0.02947348 0.65500003 10065778
0.0081857117 -0.029349735 0.65224999 10263147
0.010740418 -0.029383484 0.653 10263147
0.10478369 -0.029276615 0.65062505 10985843
0.12776524 -0.02789516 0.65344453 8685428
0.13618289 -0.026390312 0.65518183 8817786
0.14351803 -0.024425792 0.65662503 8356982
0.15188178 -0.02102392 0.65700006 12960411
-0.14345311 -0.011377309 0.65462506 8622475
-0.13565831 -0.01471065 0.65455562 8621446
-0.12814867 -0.01810593 0.65433335 8621188
0.15614459 -0.01857179 0.65384614 12235914
0.16475931 -0.016337922 0.65390003 12828826
0.17515732 -0.013700816 0.65478945 10526341
0.18366271 -0.011153518 0.65592313 9277054
-0.36310786 -0.0024323536 0.65833348 9866121
-0.35491431 -0.0018837977 0.65823281 9735048
-0.34465548 -0.001718907 0.65813899 9735303
-0.33501744 -0.0024558015 0.65814322 9735560
-0.32535192 -0.0025366077 0.65812105 9669512
-0.31556484 -0.0015875788 0.65838265 9604233
-0.30489716 -0.0015837473 0.65842313 9538953
-0.29446697 -0.0017153401 0.65835929 9407623
-0.28611675 -0.0012641108 0.65847623 9473673
-0.26411515 -0.0005305896 0.65900004 9408399
-0.25432837 -0.00087280927 0.65850013 9211278
-0.24489518 -0.00144253 0.65783346 9145741
-0.23463877 -0.0022385539 0.65669399 9211788
-0.22473276 -0.0022053742 0.65686017 9014924
-0.21512727 -0.0016554855 0.6572634 9146511
-0.20518501 -0.0013603318 0.65720016 8883853
-0.19536325 -0.0013349112 0.65755892 8949643
-0.18481457 -0.0014636273 0.65806073 8949899
-0.17514646 -0.0014106259 0.65822875 8752780
-0.1650252 -0.0023627451 0.65764284 8752778
-0.15550824 -0.0044471216 0.65516663 8753549
-0.1486481 -0.0085341223 0.6532858 8753806
0.18764575 -0.0090074092 0.6525715 9868677
0.19561565 -0.0074795936 0.654625 9474703
0.20495249 -0.0034788407 0.65566689 9212304
0.21534654 -0.0029856986 0.65786982 9080720
0.22514129 -0.0028466727 0.65755385 9080465
0.23489261 -0.0033163165 0.65757185 9079949
0.24442695 -0.0030167857 0.65789109 9014414
0.25475028 -0.0023978613 0.65836394 9079694
0.26508704 -0.0030809743 0.65825528 9013901
0.27537999 -0.0024524576 0.65846974 9145231
0.28520975 -0.0026984757 0.658117 9013647
0.29514867 -0.0031455851 0.65760028 9079439
0.30462047 -0.0033651569 0.65748602 9144975
0.31431609 -0.002782864 0.65756691 9013133
0.32056427 -0.00248637 0.65828574 9012620
-0.36212555 0.0044070007 0.65449995 9800841
-0.35513064 0.0053810743 0.65389407 9800584
-0.3450551 0.0052232835 0.65384698 9735046
-0.33504382 0.0051163202 0.65350002 9735047
-0.32497817 0.0048138178 0.65335113 9669769
-0.31498837 0.0047819568 0.65359151 9669770
-0.30491003 0.004391395 0.65428758 9604234
-0.29490972 0.0046625608 0.6538735 9473159
-0.28501081 0.0045079272 0.65411359 9473418
-0.27505636 0.0047680358 0.65480238 9276813
-0.26505309 0.0045478339 0.65470904 9276557
-0.25536624 0.0036881738 0.65372592 9276814
-0.24526681 0.0031976213 0.65280372 9145999
-0.2351584 0.0030810637 0.65263844 9014413
-0.22522807 0.0028279405 0.65214306 9014925
-0.21489771 0.0027273751 0.65229994 9080462
-0.20524161 0.0026108555 0.65231913 8949389
-0.19448584 0.0026948517 0.65266001 8818314
-0.184715 0.0035278089 0.65320307 8884109
-0.1750728 0.0045214132 0.65324694 8818572
-0.16706657 0.0031951864 0.65277785 8752779
0.20817342 0.0037502421 0.65278262 9868682
0.21477285 0.0041484125 0.65319508 9145999
0.22499889 0.0036872954 0.65270603 9080464
0.2351397 0.0041200467 0.65293503 9079949
0.24509597 0.0043714223 0.65332496 9079436
0.25503665 0.0046462612 0.6541512 8948366
0.26490778 0.0044334014 0.65385729 9079694
0.27513352 0.0037527063 0.65383106 9013901
0.28507689 0.0039589098 0.65323669 9013646
0.29470792 0.0034976299 0.65289533 9079183
0.3047533 0.0033155561 0.65282792 9079182
0.31433845 0.0028279771 0.65269578 9275535
-0.065785006 -0.030415272 0.66820002 8162436
-0.054314006 -0.031799722 0.66810006 7965829
-0.045382783 -0.031744719 0.6669445 8885897
-0.034503713 -0.032587193 0.66418749 9740687
-0.024418009 -0.034560718 0.66417646 7965570
-0.014979888 -0.036148135 0.66493326 8162950
-0.0054915324 -0.03618107 0.66522223 8096898
0.004262744 -0.033489954 0.66464287 9871237
0.01464056 -0.032882757 0.66485721 10857346
0.025562821 -0.034924176 0.66691667 10332813
0.032114636 -0.035267968 0.66800004 10924695
0.044023771 -0.033373702 0.66485721 10724987
