# .PCD v0.7 - Point Cloud Data file format
VERSION 0.7
FIELDS x y z rgba
SIZE 4 4 4 4
TYPE F F F U
COUNT 1 1 1 1
WIDTH 1104
HEIGHT 1
VIEWPOINT 0 0 0 1 0 0 0
POINTS 1104
DATA ascii
0.055939279 0.0016957739 0.54093546 10724251
0.064871073 0.0017134962 0.54158336 10723737
0.075893082 0.0020845437 0.54152089 10591382
0.08532849 0.005170472 0.54392719 10526622
0.095149644 0.0064319805 0.54608154 10920605
0.1052319 0.00531362 0.54578489 10327949
0.11493386 0.0051803677 0.54383057 10328211
0.1248811 0.005209398 0.54387027 9934999
0.1348934 0.0055142269 0.54587287 9803671
0.14352082 0.0070243445 0.5480001 9277069
-0.13401833 0.015473362 0.54679358 13948897
-0.12531215 0.01492421 0.54283565 13290706
-0.11537857 0.012857975 0.54251891 11974328
-0.10573519 0.011974179 0.54181248 12764357
-0.097215958 0.010800778 0.54027271 12632771
-0.040249884 0.010795326 0.54000002 10856866
-0.033949878 0.012091404 0.54106992 12106167
-0.02669511 0.012130063 0.54087508 12237238
0.0088818157 0.010795326 0.54000002 11185061
0.015595984 0.013542154 0.54153413 10921894
0.024461741 0.014787993 0.54139334 11644841
0.032304641 0.012038881 0.54071879 11578790
0.087953649 0.012471854 0.54059261 10395801
0.095127061 0.014712916 0.54201472 10526359
0.1044654 0.014531912 0.5418939 10261644
0.11437789 0.011696084 0.54061246 10327953
0.12582287 0.011886827 0.54045868 9934744
0.13530467 0.014569469 0.54242843 9934486
0.14317989 0.013611761 0.54669362 9605263
-0.14363198 0.027152056 0.54726988 12697793
-0.1349093 0.025225312 0.54445761 13685208
-0.12723605 0.023482563 0.54128581 13488086
-0.0016466971 0.029053206 0.54016668 3748133
0.0039291382 0.029060062 0.54029417 3683881
0.016628129 0.026898671 0.54078877 5195835
0.024540136 0.024993381 0.54208052 6380625
0.034497231 0.027369207 0.54219997 4208944
0.045314662 0.02796194 0.54207551 3881258
0.055456441 0.027970221 0.54315001 3683110
0.064345382 0.028396193 0.54171067 3617830
0.070647381 0.029044243 0.54000002 4077350
0.088896297 0.029044243 0.54000002 6844517
0.094828442 0.02781694 0.54026926 9606029
0.10631923 0.026754308 0.54041177 8946297
0.11494356 0.028536979 0.54366672 4866360
0.12480567 0.027105916 0.54459524 4143663
0.13397148 0.022877011 0.54432505 6248527
-0.15302862 0.036294747 0.54689485 12631229
-0.14500065 0.034843568 0.54313403 12631743
-0.13607404 0.03317542 0.54125625 13487571
-0.013735904 0.037438031 0.54244643 3618603
-0.0053633042 0.034494452 0.54488498 3618344
0.0048384662 0.033139143 0.54506594 3749416
0.01468096 0.033709299 0.54530555 3684136
0.023736535 0.032566193 0.54747629 3551266
0.034696732 0.031838901 0.5472917 3617831
0.044399794 0.031784918 0.54704261 3815468
0.05396473 0.031122923 0.54791999 3617830
0.065573178 0.031702008 0.54639214 3683367
0.074827924 0.032406844 0.54417866 3552293
0.085335292 0.033089489 0.54453331 3749927
0.094688095 0.032254189 0.54413837 4472112
0.10410144 0.031829912 0.54434013 4931896
0.11201128 0.031203708 0.54777777 4340273
-0.16082026 0.047539543 0.54825002 12303032
-0.15477882 0.044466604 0.54390472 12500671
-0.1471467 0.041723553 0.5406 12369599
-0.032533318 0.047806092 0.54231256 3552299
-0.024571666 0.045663971 0.5445677 3683884
-0.016364112 0.043193914 0.54658979 3750185
-0.0095232204 0.040945586 0.54900002 3880746
-0.30318373 0.056439582 0.54802865 10394523
-0.29471648 0.05668655 0.54801059 10262423
-0.28514886 0.056979228 0.54804105 10394781
-0.27497625 0.057718281 0.54825014 10723235
-0.26551059 0.058397733 0.54832 10789283
-0.2561605 0.05927375 0.54889989 10854819
-0.16171589 0.055369955 0.54808581 8486005
-0.15589359 0.055076808 0.54271907 10065297
-0.14862038 0.059646279 0.54000002 6248790
-0.061306328 0.059927028 0.54000002 4471340
-0.052934516 0.058205843 0.54264289 3881263
-0.044791725 0.055391584 0.54456681 3684397
-0.03583144 0.052179229 0.54571438 3946027
-0.027780106 0.050917137 0.54879999 3749932
-0.30211988 0.06450437 0.5443055 10327699
-0.29512721 0.06495297 0.54458785 10262166
-0.28500262 0.064817779 0.54458421 10064531
-0.27492911 0.06478817 0.54497254 10459801
-0.26474693 0.065102369 0.54438037 10789026
-0.25502816 0.064938553 0.54627615 10394270
-0.24509564 0.0650343 0.54684311 10591904
-0.23522019 0.065263882 0.54704124 10591393
-0.22520451 0.065654345 0.54740471 10263455
-0.21507929 0.066006325 0.54782683 10066076
-0.20499289 0.066341966 0.54801732 10724263
-0.19494805 0.066661507 0.548307 10396580
-0.18540286 0.068085812 0.5485965 10790054
-0.17617156 0.06900835 0.54896283 10461604
-0.16290185 0.066185616 0.54838896 6578778
-0.15469378 0.064718306 0.54482514 3486250
-0.14523403 0.065513074 0.54262489 2894625
-0.13510936 0.066725336 0.54146576 2696988
-0.12545808 0.067575902 0.54120475 2696476
-0.11413644 0.068042129 0.54090011 2565404
-0.1048359 0.067468211 0.54209262 3157795
-0.095229961 0.067221873 0.5428552 2894368
-0.084945343 0.06737303 0.54408962 2236437
-0.075137883 0.066254243 0.54511768 2302746
-0.064821854 0.064060077 0.54467118 2565658
-0.056098361 0.062211752 0.54607558 2762527
-0.30134475 0.071146965 0.54099995 10787484
-0.29499036 0.071568988 0.54121339 10656926
-0.28477785 0.071399659 0.54108953 10327706
-0.27524719 0.07114844 0.54107028 10524825
-0.26391566 0.071614176 0.54056829 10460574
-0.2549673 0.072572462 0.54178995 10000537
-0.24517345 0.072276287 0.54163343 10000279
-0.2344469 0.073484637 0.54235095 10789284
-0.22496852 0.074975334 0.54280317 10395038
-0.21503958 0.075175822 0.54310524 10198175
-0.20513365 0.075105429 0.54386234 9935259
-0.19490768 0.075189635 0.54436535 10001054
-0.18492168 0.075276166 0.54456568 10001311
-0.1749966 0.075373568 0.54509026 9804188
-0.16492218 0.074931443 0.5467627 9013125
-0.15519837 0.074969999 0.54658955 4999232
-0.1452035 0.074588217 0.54435343 2499607
-0.1354479 0.074597888 0.54461128 2104338
-0.12546216 0.07455264 0.54427123 1710351
-0.11505431 0.074677683 0.54408038 1579022
-0.10480238 0.074595504 0.54571563 1512973
-0.095332973 0.075042643 0.548168 1512973
-0.08504685 0.075492762 0.5487166 1578253
-0.075206347 0.078030042 0.5486666 1447950
-0.06517709 0.078589499 0.54868174 1447694
-0.056725066 0.079019345 0.54882604 2106395
-0.21150896 0.080983467 0.54000002 9739682
-0.20436214 0.081002221 0.54012501 9935258
-0.19438307 0.080983475 0.54000002 10132893
-0.1850338 0.081220083 0.54008001 10133666
-0.17407851 0.081529155 0.54060018 9080209
-0.16473264 0.082158282 0.542 8750470
-0.1549015 0.082897238 0.54229707 7565936
-0.14452872 0.084008604 0.54168504 5066310
-0.13532506 0.084774725 0.54245824 3421482
-0.12494174 0.084566891 0.54233104 2236949
-0.11498722 0.084648944 0.54262096 2105106
-0.10499667 0.085158408 0.54442495 1973264
-0.09494818 0.085222408 0.54606104 1776143
-0.084786214 0.085056841 0.54604435 1841937
-0.074716657 0.085282721 0.54554147 2039572
-0.064896367 0.085194185 0.54570913 2039833
-0.05499259 0.084861785 0.54674637 2237983
-0.045464069 0.086477228 0.54741842 2565919
-0.035113499 0.087261707 0.54774696 2500638
-0.025134431 0.08722987 0.5482291 3026982
-0.015485808 0.087523572 0.548419 3422770
-0.0057220482 0.088249728 0.54862255 3685171
0.0035484857 0.089023739 0.54871994 4605496
0.027154768 0.089469001 0.54899997 4672576
0.03186439 0.089468993 0.54900002 4474171
-0.13430201 0.090809815 0.54000002 5263180
-0.12096626 0.090809807 0.54000002 2961436
-0.11336253 0.090926796 0.54000002 2697500
-0.10421774 0.092095979 0.54080021 2368278
-0.094805487 0.093100078 0.54182351 2104596
-0.085575797 0.093349218 0.54182243 2368280
-0.075475581 0.093097188 0.54167706 2369308
-0.064550765 0.093596548 0.54165518 2565917
-0.054685965 0.094840623 0.54260433 2698276
-0.04472236 0.094866022 0.54317212 3158567
-0.034865126 0.094941303 0.54360646 2632481
-0.02502864 0.095154628 0.54483289 3421482
-0.015128704 0.095232062 0.54527318 4342585
-0.0052094739 0.095305704 0.54569584 4540221
0.0047205202 0.095310792 0.54572564 4671805
0.014437102 0.095538147 0.54664153 4803648
0.024714045 0.09497869 0.5473612 4935234
0.034512877 0.095133476 0.54795069 4737342
0.044555202 0.096393503 0.54827631 4868671
0.054473519 0.096410677 0.54837155 4737088
0.06413307 0.097663037 0.5484376 4935492
0.07441511 0.098593824 0.54866666 4803139
0.084521636 0.099065401 0.54899985 4605503
0.092576481 0.099068344 0.54881245 4539967
-0.052892294 0.10097213 0.54009098 3421998
-0.04411177 0.10111903 0.54016137 3487275
-0.034278724 0.10126818 0.54042429 2829855
-0.02439145 0.10181436 0.54093885 4342323
-0.014752272 0.1028571 0.54147446 4868672
-0.0051075034 0.10328538 0.54147786 4933950
0.0046858871 0.1033269 0.54167044 5066306
0.01514641 0.10408448 0.54222023 5001026
0.024592046 0.10464001 0.54346919 5000514
0.034826636 0.10420299 0.54368407 5000770
0.045199201 0.10447903 0.54370409 5198150
0.055137794 0.1050083 0.54452336 5131590
0.065053955 0.10516808 0.54532075 5197893
0.074968971 0.10512307 0.54607296 4803649
0.084991686 0.10522421 0.54627109 5000771
0.094745822 0.1055273 0.54663938 4736828
0.10486338 0.10567056 0.54700655 4474173
0.11471114 0.10572318 0.54749149 4540220
0.12440798 0.10691823 0.5480243 4275501
0.13462539 0.10804082 0.54819661 4209709
0.14489827 0.10810392 0.54805672 3485987
0.15458021 0.10771763 0.54814082 3879973
0.1630708 0.1085396 0.54868746 3814180
0.17243955 0.10944922 0.54900002 4340773
0.018708156 0.11046249 0.54000002 4542264
0.021515682 0.11046249 0.54000002 4542267
0.049590942 0.11046249 0.54000002 4804429
0.056090068 0.11141849 0.54072523 5132616
0.065482475 0.11274244 0.5416283 4935235
0.075234316 0.11330445 0.54240745 5132361
0.084818818 0.11325691 0.54213119 5000001
0.095105492 0.11335718 0.54155213 4999745
0.10516211 0.11438148 0.54202133 4869186
0.11495601 0.11464193 0.54349345 4539707
0.12508418 0.11494413 0.54405731 3947823
0.13506222 0.11473753 0.54346728 3420965
0.14499846 0.11468811 0.54416728 3617570
0.15498422 0.11505366 0.54488778 3880487
0.16524549 0.11524075 0.54562294 3748902
0.17491701 0.11531113 0.54577619 4144171
0.18473031 0.11622292 0.54700798 3749671
0.19499514 0.11642363 0.54770118 4013359
0.20473647 0.11712065 0.54796124 4078635
0.21442053 0.11810096 0.54846942 4077350
0.22377782 0.11890511 0.54882604 4537127
0.23356952 0.11943933 0.54900002 4076841
0.1078471 0.12028883 0.54000002 4737600
0.11582407 0.1207818 0.54037505 4934462
0.12443866 0.12062734 0.54030764 4342068
0.13471913 0.12028884 0.54000002 3223328
0.14637856 0.12162004 0.5406307 3223070
0.15535255 0.12269443 0.54137361 3420966
0.16524172 0.12282025 0.54135633 3748646
0.17527197 0.12412186 0.54137713 3617569
0.18519817 0.12493288 0.54280102 3485474
0.19502114 0.12465786 0.5437361 3683107
0.20486088 0.12475496 0.54438311 4208938
0.21493557 0.12496959 0.5462544 3814950
0.22526826 0.12489253 0.54763436 4078118
0.23502381 0.12518795 0.54689467 4537646
0.24467596 0.1256754 0.54751194 4405033
0.25487259 0.12726814 0.54792511 4472110
0.26301691 0.12749255 0.54791129 4143143
0.17803524 0.13011517 0.54000002 4143150
0.1858591 0.13056681 0.5401482 3945252
0.19519326 0.13069855 0.54025733 3617314
0.2058996 0.13231684 0.54104853 3879974
0.21526651 0.13378397 0.54247802 3946025
0.22505495 0.1334687 0.54342949 3815207
0.2349778 0.13398187 0.54270869 3946027
0.24510902 0.13410085 0.54270911 4011303
0.25500086 0.13456038 0.54292327 4143661
0.26191717 0.13366996 0.54375845 3684137
0.26031598 0.1411977 0.54033333 4274217
-0.0053372206 -0.030966319 0.55900002 12829378
-0.12013643 -0.020794239 0.55900002 14344679
-0.11410257 -0.02301348 0.55760872 14211295
-0.10780946 -0.022995641 0.55847055 14079191
-0.080901258 -0.020794239 0.55900002 13684944
-0.073653497 -0.021753492 0.55824 13224392
-0.064081088 -0.022971233 0.55701488 13553358
-0.054713611 -0.023444995 0.5571456 13487823
-0.045637839 -0.022413587 0.55783635 12698565
-0.038033195 -0.020794239 0.55900002 12698819
-0.0073353089 -0.0284233 0.55900002 12697787
-0.12224355 -0.013381908 0.55836368 14672616
-0.11477937 -0.014241084 0.55672723 14079963
-0.10535876 -0.014380599 0.55706954 13750479
-0.094923854 -0.013717182 0.55687845 13224137
-0.084652305 -0.014019436 0.55625653 13684688
-0.0749017 -0.014825827 0.55442458 11579054
-0.065014362 -0.014932269 0.55264074 10197659
-0.055202663 -0.014850725 0.5531593 9869208
-0.045184411 -0.01487197 0.55389988 10395294
-0.035890482 -0.013726421 0.55652285 12633027
-0.028217297 -0.011422773 0.55795652 12829379
0.10748043 -0.010622158 0.55900002 11644586
0.11466761 -0.010972551 0.55832136 11249318
0.12278768 -0.010618357 0.55880004 10461857
-0.13161469 -0.0009941801 0.55837506 15264244
-0.12379147 -0.0034371454 0.55703068 14146274
-0.11490168 -0.0046803956 0.55388325 12303553
-0.10522205 -0.0047584306 0.55120927 10789541
-0.095506944 -0.0065260795 0.55174237 10196890
-0.085596383 -0.0075617894 0.55145442 13355980
-0.076043047 -0.0080749718 0.55041665 12368829
-0.064920157 -0.0080474848 0.55056256 13422032
-0.055070262 -0.0078112422 0.55074984 13356237
-0.045183174 -0.007751741 0.550614 12961734
-0.035266884 -0.0070691276 0.55188465 12501183
-0.025457716 -0.0062126666 0.5538711 12171960
-0.015699096 -0.0033909837 0.55381244 11711145
-0.0053597745 -0.0026828267 0.55339473 11514282
0.0047241496 -0.0020400709 0.55469227 11580075
0.012053013 -0.00044819654 0.55666667 10396320
0.036557186 -0.00044717672 0.55540007 11513252
0.044818379 -0.002462215 0.55393338 11250852
0.055351991 -0.0021033504 0.55410004 11118752
0.065369248 -0.0029355295 0.55453199 10921372
0.075604931 -0.004896176 0.55460656 10592152
0.085232779 -0.0044619627 0.55513686 11578792
0.095235489 -0.003122746 0.55607218 11709861
0.10490373 -0.0047943401 0.55464143 10656401
0.11468405 -0.0061697685 0.55354196 10591640
0.12526947 -0.0065653515 0.55413193 10395035
0.13511056 -0.0050797877 0.55424315 9474187
0.14388321 -0.0027913451 0.55563498 8619138
-0.14263451 0.0080881082 0.55703443 12500930
-0.13521224 0.0053480179 0.55427271 14277603
-0.12478768 0.0034080648 0.55303782 13488089
-0.11532686 0.0036372095 0.55143011 13750743
-0.10743599 0.002224524 0.5502702 14276830
0.015958354 0.0018107005 0.55294281 11711666
0.024951007 0.0020802151 0.55384851 12500410
0.032332949 0.00099087728 0.55220002 12500406
0.088120811 0.0011665465 0.55049998 11645098
0.094839722 0.0015846235 0.55097222 11578534
0.10200344 0.00098715385 0.550125 11181975
0.13915433 0.00098692952 0.55000001 9672341
0.14617114 0.0036591638 0.55086565 9014153
0.15191008 0.0064981859 0.55481249 9275784
-0.15221074 0.017501373 0.55804998 13092294
-0.14492899 0.015442318 0.55492121 12762818
-0.13872056 0.014737217 0.55057138 12829127
0.14702943 0.016385194 0.55356419 8157044
0.15200043 0.013122458 0.55754548 8814717
-0.16082475 0.028613016 0.55900002 12500672
-0.15451173 0.025754184 0.55523527 12039606
-0.14637098 0.023473419 0.55178452 11117222
-0.13964859 0.021003548 0.55000001 12893118
0.12657875 0.029444959 0.55243754 3617827
0.13539179 0.026617095 0.55418748 3682853
0.14208764 0.022127677 0.55536371 4604729
-0.31125998 0.037899327 0.55880004 9538192
-0.30526927 0.03827969 0.55869704 10329246
-0.29505426 0.038457129 0.55882609 10131351
-0.28695858 0.0387851 0.55900002 11645363
-0.16250576 0.03607114 0.55645835 11841716
-0.157107 0.034138054 0.55218863 12565694
-0.0033693316 0.039104272 0.55119997 3815975
0.0045650913 0.038446154 0.55150002 3946794
0.014676308 0.038989514 0.55082035 3881000
0.025560865 0.037372753 0.55188078 3749669
0.03483868 0.03666782 0.55248874 3815209
0.044986695 0.036494918 0.55261457 3683882
0.055339482 0.035670228 0.55384153 3618342
0.064954251 0.036346648 0.55420005 3814950
0.074563846 0.03732568 0.5543586 3552805
0.084889874 0.037648726 0.55347508 3486754
0.094747216 0.036969326 0.55439579 3551778
0.10503988 0.03570189 0.55505008 3813927
0.11504212 0.032928798 0.55477786 3748649
0.12357598 0.031594012 0.55664289 3485728
0.13271247 0.03006617 0.55900002 2566678
-0.31072512 0.041815363 0.55680007 11051683
-0.30489478 0.044783611 0.55503714 10657440
-0.29498935 0.044952281 0.55484867 10789283
-0.28520417 0.04521063 0.55534738 11315114
-0.27526832 0.045839626 0.55598658 11117990
-0.26508719 0.046553597 0.55627745 10658470
-0.25548857 0.046844557 0.55708969 11118762
-0.24459241 0.047329344 0.55817854 10987178
-0.23544611 0.047390062 0.55819982 10855592
-0.22465047 0.048296802 0.55871868 10724260
-0.21465926 0.047964428 0.55857897 10263455
-0.20529725 0.048430417 0.55851513 10791081
-0.19474784 0.048343822 0.55841935 10527652
-0.18669727 0.048479743 0.55865377 10461862
-0.17335726 0.048338939 0.55872726 9737109
-0.16535698 0.045034137 0.55441755 11118246
-0.15976198 0.041521613 0.55033332 12697281
-0.020978635 0.04959872 0.55000001 3553323
-0.014083834 0.047391035 0.5514155 3881258
-0.005214808 0.04498899 0.55407286 3881514
0.0046016439 0.044854499 0.556144 3947050
0.014715704 0.043846257 0.55601132 4012330
0.025265045 0.043583538 0.55679727 3947048
0.03485753 0.042727098 0.55751288 3947050
0.045338381 0.041625462 0.55738181 4012328
0.054183345 0.040964931 0.55837506 3815464
0.063061848 0.040226262 0.55883336 3881512
0.075014465 0.040175267 0.55812508 3749927
0.084898002 0.040175274 0.55812502 3618083
0.091297552 0.040238254 0.55900002 3683110
-0.30378222 0.051811568 0.55051434 10788765
-0.29561946 0.052078184 0.55035532 10394270
-0.28464124 0.052269775 0.55057615 10788769
-0.274912 0.0531197 0.55094987 10591905
-0.26477724 0.053940561 0.55128145 10526368
-0.25451908 0.054378521 0.55225867 10658209
-0.24495293 0.054965407 0.5532161 10724261
-0.23495118 0.054968268 0.55347067 10592677
-0.22507077 0.055034291 0.55422974 10921641
-0.21488135 0.054981187 0.55389702 10264225
-0.20488407 0.055010926 0.55394107 10724518
-0.19484361 0.055011794 0.55379921 10395812
-0.18490009 0.054975513 0.55433559 10330275
-0.17524992 0.05505706 0.55558747 9803929
-0.16680279 0.055290055 0.55243754 9144968
-0.044235963 0.058651008 0.55134624 3618343
-0.034671649 0.056731515 0.55348533 3157794
-0.025238443 0.055345055 0.5542413 2894622
-0.01592619 0.054412972 0.55627602 2763551
-0.006271082 0.05149598 0.55789787 3552806
0.0012019746 0.050410334 0.55900002 3880747
-0.24287716 0.061036788 0.55000001 9934998
-0.2333999 0.061036792 0.55000001 10855336
-0.22436377 0.061246328 0.5500477 10987433
-0.21526691 0.061407473 0.55000013 9605528
-0.20509228 0.061654117 0.55019432 10789798
-0.19473726 0.061923731 0.55020833 10462116
-0.18459308 0.063513644 0.55043703 10395810
-0.17468418 0.064454935 0.55126625 10066847
-0.16724698 0.064663567 0.55055362 8948363
-0.072603397 0.069508381 0.55018187 1316879
-0.06509506 0.068811364 0.55110639 1447179
-0.054355133 0.06686949 0.55284786 1381644
-0.044787243 0.064939752 0.55675137 1644559
-0.035871573 0.061258428 0.5582 1513230
-0.024865882 0.06301938 0.55896002 1316366
-0.019142188 0.062762149 0.55900002 1316623
-0.09264528 0.075691804 0.55000007 1578254
-0.085372373 0.075108938 0.55003405 1446924
-0.075316519 0.073711477 0.5503974 1250828
-0.065354638 0.073958822 0.55103838 1315850
-0.054897759 0.074370168 0.55205786 1645585
-0.045212682 0.07496845 0.5545035 1974553
-0.03515682 0.074958235 0.55672961 1842708
-0.02529571 0.075379409 0.55615616 2172188
-0.015433471 0.074985914 0.55630386 2369566
-0.0055765118 0.075618953 0.55710512 2369823
0.0044698929 0.077353679 0.55808192 2632483
0.015043351 0.077365465 0.55819976 2960929
0.024642905 0.077880822 0.55818027 2894878
0.034598161 0.078911714 0.55856246 3421735
0.044753868 0.079473421 0.55900002 3355940
0.054968696 0.079473428 0.55900002 2829344
0.064252749 0.079473414 0.55900002 2697497
0.070226818 0.079473421 0.55900002 2828315
-0.051003564 0.081053406 0.55000001 2433817
-0.044341773 0.082096733 0.55090898 2434590
-0.035385482 0.082181484 0.55144966 2171158
-0.025569802 0.082270257 0.55114645 2632738
-0.014977492 0.082454897 0.55132258 3224363
-0.0050454992 0.083165631 0.55209571 3685427
0.0049972367 0.084295318 0.55316812 3948341
0.014868535 0.085205138 0.5538336 4211513
0.024766048 0.084802568 0.55328524 4211769
0.035093103 0.084924459 0.55322874 4540990
0.045133371 0.085257992 0.55419075 4277562
0.055211447 0.085251525 0.55414897 3883062
0.065030441 0.085211679 0.55504674 3948085
0.074429125 0.086073965 0.55738348 4079671
0.084480338 0.087290078 0.55753827 3948855
0.094533049 0.087994471 0.55775797 3882292
0.105061 0.088307433 0.55820376 3750704
0.11482228 0.088703543 0.5586046 3421739
0.12157161 0.089645505 0.55900002 2633760
0.015805153 0.091061719 0.55000007 4671295
0.021914119 0.091061719 0.55000001 5065271
0.038785271 0.091347665 0.55000001 4474429
0.04503062 0.091984771 0.55002367 4474427
0.055214677 0.091992684 0.5500713 5000259
0.065562248 0.093118899 0.55121273 4540992
0.075221494 0.093782008 0.55248868 4869188
0.085232206 0.094083853 0.55245376 4211259
0.095260926 0.094713561 0.55237287 4342583
0.1049896 0.095246382 0.55344272 4144949
0.11482675 0.095189132 0.55461311 4013360
0.12484346 0.095187515 0.55645496 3355944
0.13526173 0.095564373 0.55698448 3025952
0.14494748 0.096183978 0.55703449 3157024
0.15475483 0.096751973 0.55696803 3486496
0.16488601 0.097171135 0.55729508 2828826
0.17471972 0.097422808 0.55739969 3683368
0.18466265 0.097893521 0.55783314 3617063
0.19271903 0.098895796 0.55871993 3684137
0.098048761 0.10107002 0.55000001 4605758
0.10451017 0.10107004 0.55000007 4737597
0.11656892 0.10125592 0.55054551 3817265
0.12545978 0.10209659 0.55131257 3881516
0.13516307 0.10321989 0.55212849 3289634
0.14504896 0.10321133 0.55215275 3222817
0.15506467 0.102805 0.55166352 3486243
0.16534042 0.10402013 0.55180013 3748900
0.17508721 0.1050026 0.55254453 4077097
0.18488756 0.10514639 0.55354935 3814951
0.19491594 0.10535891 0.55585909 3946279
0.2051024 0.10595995 0.55698305 4341037
0.2149031 0.10569851 0.5573715 4274988
0.22441579 0.10755593 0.55784899 3946540
0.23380934 0.10899574 0.55866671 4341296
0.24505745 0.1097838 0.55883998 3749416
0.25460929 0.10936355 0.55872726 4538677
0.26270375 0.10998965 0.55900002 4734001
0.17689994 0.11107834 0.55000001 4340533
0.18622604 0.11142663 0.55051428 4076585
0.19556329 0.11179911 0.55117732 3881768
0.20543258 0.11237223 0.5516904 3816231
0.21532613 0.11345132 0.55230588 3946279
0.22516139 0.11455155 0.55306727 4143661
0.23513602 0.11533768 0.55367517 4471852
0.24501415 0.11536438 0.55389464 4274220
0.25484577 0.11513068 0.55505061 4669489
0.26498324 0.11517004 0.55643553 4143405
0.27051997 0.11206842 0.55850005 3878436
0.24704003 0.12154718 0.5500626 4274220
0.25546947 0.12247942 0.55105007 4603951
0.26400468 0.12255494 0.55177939 4274735
-0.061094057 -0.04134535 0.56850004 13750740
-0.054775633 -0.041728131 0.56805265 13685461
-0.04928498 -0.040864568 0.5686667 13619412
-0.031317826 -0.040395182 0.56900001 13226450
-0.026880376 -0.040395182 0.56900001 13094600
-0.013958644 -0.04170293 0.56790632 12500926
-0.0056686057 -0.041801691 0.5676443 12500669
0.0013707916 -0.040958181 0.5686 12565950
0.04666625 -0.040395182 0.56900001 12565947
0.055540085 -0.0405505 0.56858343 12237241
0.065082081 -0.040859316 0.56859261 12171961
0.070003957 -0.040395182 0.56900001 11908786
0.11363889 -0.040395182 0.56900001 10789796
-0.11214063 -0.031976067 0.56725001 13948633
-0.1043456 -0.033260606 0.56602442 13816530
-0.095869549 -0.03280656 0.56782991 13684945
-0.086118907 -0.031632084 0.568591 14408415
-0.074254923 -0.031896632 0.56817156 13619407
-0.064533845 -0.034132808 0.56681502 13882584
-0.05526961 -0.034749143 0.56540543 13685458
-0.045701414 -0.03395652 0.56655133 12961482
-0.034605827 -0.034447927 0.56635207 13093837
-0.024205703 -0.034513861 0.56681132 12895426
-0.014838343 -0.034845814 0.56435221 12566716
-0.0053708483 -0.034867886 0.56276786 12369595
0.0042586108 -0.034451604 0.56611657 12171961
0.012835642 -0.031423494 0.56882364 11514293
0.036070753 -0.03309093 0.56856877 12434359
0.044836935 -0.035000846 0.56737757 12566203
0.054866314 -0.035004962 0.56546831 12368568
0.065128602 -0.034987234 0.56518269 11974326
0.074530609 -0.034400631 0.56710249 11448498
0.084008835 -0.032127742 0.56879085 10987173
0.095819645 -0.031827807 0.56887251 10459540
0.10561085 -0.034420773 0.5672819 11117724
0.11480241 -0.034529332 0.56564498 10328470
0.12452026 -0.033927094 0.56733346 10328986
0.13412602 -0.031883072 0.56868583 9999763
0.14174274 -0.030780703 0.56900001 9604230
-0.12246819 -0.022830812 0.56620002 14804974
-0.11468846 -0.025703507 0.56450009 14014170
-0.10423706 -0.025216445 0.56359428 13947863
-0.094857574 -0.025241332 0.56398594 13619155
-0.084951982 -0.025298316 0.56425202 14079448
-0.075169064 -0.025890928 0.56338215 13553102
-0.065540552 -0.027015515 0.56218666 13751511
-0.054683298 -0.028348425 0.56129408 13488337
-0.044207882 -0.026832543 0.56228113 12698567
-0.034814216 -0.02499141 0.56362313 13027786
-0.024401641 -0.02528147 0.56437176 12369337
-0.01494197 -0.025271853 0.561961 10395544
-0.0052531702 -0.025114996 0.56256849 9474187
0.0048880591 -0.025404772 0.56470108 9013381
0.014590935 -0.025030237 0.56755221 9738393
0.025147105 -0.024361501 0.56860024 9802898
0.03461495 -0.02528313 0.56757951 9604232
0.044465255 -0.02613407 0.5659374 8288884
0.055026408 -0.02600345 0.56546152 7564904
0.065136708 -0.025429182 0.5652656 7433573
0.075289048 -0.02529395 0.56591487 7959921
0.084736735 -0.025470054 0.56642562 9211016
0.095015414 -0.025097946 0.56720966 9275520
0.10475018 -0.025424745 0.56496632 8486262
0.11465995 -0.025338225 0.56311607 7368298
0.12510408 -0.025306618 0.56440997 7171432
0.13499078 -0.025295518 0.56672555 8158069
0.14417233 -0.024070149 0.56807816 8092535
-0.13124968 -0.012746576 0.56725007 15922938
-0.12510841 -0.014784537 0.56457138 15001583
-0.11575374 -0.015979109 0.56318605 14277088
-0.10439367 -0.018963045 0.56350005 14145755
-0.094984844 -0.018370077 0.56086844 13619157
-0.086337745 -0.018454177 0.56051618 13948119
-0.076735057 -0.019389523 0.56040001 13816278
-0.040284868 -0.019375684 0.56 12303041
-0.032832708 -0.017987279 0.56102282 12830663
-0.024017351 -0.015553096 0.56359541 10658466
-0.01608978 -0.017862288 0.56670469 7697261
-0.0058898372 -0.01967627 0.56868756 7500393
0.0057211597 -0.019464936 0.56840909 7565417
0.012094541 -0.019456001 0.56842858 7567473
0.065375708 -0.019087609 0.56851518 6775643
0.076378316 -0.015670303 0.56746262 8157298
0.085081384 -0.015039181 0.56349647 10855324
0.095029756 -0.015048179 0.56324089 10853780
0.10462046 -0.015397361 0.5622291 10460055
0.11491569 -0.016091263 0.56198245 9671315
0.12521812 -0.015603479 0.56320596 9145223
0.13498116 -0.014970514 0.56447744 8420984
0.14507933 -0.01537271 0.56707245 6710878
0.1513572 -0.019687079 0.56900001 6446419
-0.14228109 -0.0015404553 0.56733334 13881301
-0.13440062 -0.0040843766 0.56487101 15396084
-0.12628029 -0.0061232983 0.56259185 15132659
-0.11838003 -0.0092018079 0.56099999 14542064
-0.021412559 -0.0092090983 0.56144452 9211536
-0.015581601 -0.0067701954 0.56381643 7500654
-0.0056825266 -0.005365564 0.56257159 9803919
0.0049692015 -0.004866079 0.56502944 9540746
0.014578143 -0.0015041756 0.56439286 11119531
0.025503894 -0.00045597958 0.56633335 12500923
0.03560593 -0.0014793829 0.56305009 11645095
0.044459827 -0.0031788696 0.56407142 10988195
0.05732185 -0.0039072824 0.56405884 11118750
0.065343745 -0.0059689996 0.56426841 7499882
0.074171945 -0.0082240021 0.56334776 7038822
0.085393146 -0.0090553006 0.5601365 11118498
0.094828598 -0.0080863656 0.56046021 10986138
0.10128722 -0.0091854054 0.56 10918548
0.13734812 -0.0091874553 0.56012499 9736849
0.14579542 -0.0074745524 0.56247997 8486266
0.15130925 -0.0059001492 0.56669229 7301990
-0.16074347 0.0098959245 0.56900001 12697796
-0.1538192 0.007129875 0.56650722 12894915
-0.14565507 0.004583946 0.56379759 13421518
-0.13613999 0.0025316759 0.56283337 15527413
-0.1285885 0.0010066682 0.56099999 15199484
0.019401051 0.0010048737 0.56 12698045
0.023193717 0.0010052326 0.56020004 12763582
0.15574548 0.0063550337 0.5634706 9473419
-0.3167938 0.018770827 0.56900001 11184551
-0.1622076 0.015758144 0.56717139 12698047
-0.1559519 0.014640438 0.56223702 12829377
-0.14946643 0.011195153 0.56 12764098
0.14759523 0.01994154 0.56033331 5065800
0.15426938 0.015348854 0.56495243 6051410
-0.31365514 0.024554078 0.56712252 11052197
-0.30489725 0.025227347 0.56661683 11118248
-0.29500976 0.025596449 0.56663376 11250346
-0.28475899 0.025440272 0.56691557 11250088
-0.2749767 0.025856763 0.56707376 11249319
-0.26491696 0.026314545 0.56746274 11381419
-0.25512856 0.026248932 0.56782126 11381937
-0.24515869 0.027322741 0.56845742 11316912
-0.2353144 0.02838737 0.56864876 10527398
-0.22542264 0.029124878 0.56900007 10856622
-0.215472 0.029124875 0.56900001 11449017
-0.17109752 0.029124876 0.56900001 9935005
-0.16462439 0.024724729 0.56503338 11908018
-0.15893532 0.022865286 0.56061542 12698046
0.13811019 0.028389838 0.56174999 2564375
0.14711107 0.022592662 0.56492305 3816236
0.15020452 0.020095756 0.56466669 4800571
-0.31216618 0.032765534 0.56217772 10394268
-0.30505261 0.033560582 0.56191915 10986149
-0.29495463 0.033937633 0.56180334 11183783
-0.2849088 0.034465186 0.56250352 11052713
-0.27498618 0.034751359 0.56327057 10921125
-0.26506487 0.03479106 0.56404775 10921384
-0.25482583 0.034602337 0.56450379 11184298
-0.24504465 0.034824621 0.56488901 11184554
-0.23520276 0.034820162 0.56521368 11053482
-0.22518155 0.034809437 0.56571168 10856363
-0.21517511 0.034911808 0.5665496 11185072
-0.20543256 0.035578363 0.56754023 10922155
-0.19525146 0.036539398 0.56747991 10922155
-0.18524913 0.036879335 0.56724495 10593192
-0.17499225 0.036119208 0.5668155 10000795
-0.16687153 0.03368707 0.56238711 9473169
0.098644607 0.0389123 0.56083339 3617313
0.10588649 0.038709927 0.56316668 3485987
0.11464013 0.037031196 0.56460971 3288866
0.12472248 0.034013927 0.56451517 3091486
0.13455692 0.031596463 0.5652858 2105106
-0.28266791 0.040310234 0.56 11579822
-0.27400187 0.040732246 0.5602001 11117993
-0.2646552 0.041236814 0.56073344 11053742
-0.25430056 0.042062338 0.56098479 11513258
-0.24529076 0.042740975 0.56114149 10658210
-0.23459861 0.042781249 0.56122375 10723748
-0.22507216 0.043743342 0.56143129 10921897
-0.21502605 0.043489974 0.5619145 10856105
-0.20489146 0.043819901 0.56253386 10921644
-0.1949462 0.043669775 0.56273139 10593191
-0.1845748 0.044254888 0.56239837 9738396
-0.17566535 0.04406973 0.56231147 10001822
-0.16936173 0.041765988 0.56 9672852
0.0079369871 0.049044762 0.56 3618859
0.015570244 0.048490718 0.56086481 3815462
0.024957426 0.048138734 0.56097883 3684392
0.036044549 0.047457822 0.56115884 3881255
0.045313936 0.046798047 0.56224698 3946279
0.055052631 0.046280649 0.56304783 3880999
0.064992823 0.045300461 0.56352681 3749670
0.074693099 0.044587925 0.56458426 3618342
0.08450266 0.043808829 0.56466234 3552291
0.094206847 0.04230028 0.56511998 3420962
0.10334807 0.040869489 0.56776929 3551520
-0.012813031 0.058308177 0.56060004 1775889
-0.0048848186 0.056636937 0.56174511 1842451
0.0049723475 0.055267692 0.56276202 2236951
0.015156549 0.055315375 0.5645172 2171158
0.025432434 0.055328779 0.56465352 2171156
0.034999147 0.055267476 0.56438577 2170900
0.044566765 0.055285253 0.56686908 2105363
0.05499991 0.054355994 0.56848031 2433044
0.063915782 0.053622402 0.56860363 2301715
0.071483105 0.05131213 0.56900001 2499868
-0.040284868 0.06680496 0.56 988431
-0.034086924 0.066294104 0.56038237 1250058
-0.02503768 0.065576829 0.56036699 1316110
-0.015461687 0.065240867 0.56106287 1381645
-0.0053704055 0.06535843 0.56262606 1446924
0.0048704534 0.065410532 0.56306827 1579023
0.015137679 0.065497376 0.56382358 1513229
0.025415977 0.065548629 0.56425869 1775885
0.034954745 0.06555824 0.56432527 1775886
0.044629958 0.065201975 0.56556344 1447949
0.054924946 0.064694971 0.56714821 1841165
0.065289371 0.065110423 0.56727052 1644043
0.074635297 0.065927394 0.56673211 1513228
0.084106624 0.066805683 0.56812149 1315851
0.092907831 0.068410672 0.56885719 1710092
-0.033006094 0.070881069 0.56 1382417
-0.024999449 0.070881069 0.56 1908761
-0.018448554 0.070881069 0.56 1713946
-0.0040131975 0.071337439 0.5602501 1512974
0.0052046124 0.072998956 0.56071657 1776403
0.014996853 0.07289537 0.56088918 2039572
0.025639471 0.073366009 0.56129098 2171156
0.035624865 0.074505925 0.56188399 2171927
0.045261577 0.074738361 0.56246299 2631448
0.054775532 0.074516505 0.56304741 2368534
0.064696595 0.07442183 0.5625276 2170898
0.075227104 0.075264849 0.5623244 1842706
0.085018314 0.074947119 0.56458485 2039831
0.094813354 0.074629009 0.56640452 2369055
0.10490969 0.075373575 0.56668854 2434846
0.11520351 0.075392231 0.56602335 2303259
0.12475906 0.075436495 0.56584835 1974291
0.13473637 0.076123022 0.56712782 1776144
0.14488062 0.077255145 0.56786877 1973267
0.15536198 0.077904426 0.56823355 2170900
0.16503014 0.077773064 0.5680002 2894364
0.17415091 0.078661822 0.56856263 3289376
0.18301103 0.079415984 0.56900007 3881260
0.076645449 0.082231909 0.56047231 3356203
0.085504137 0.082456842 0.56132078 3421997
0.095225297 0.08297538 0.56186903 3290157
0.10485373 0.083136253 0.561777 3158569
0.11487526 0.083529145 0.56128496 2830117
0.12494656 0.084744804 0.56150305 2434843
0.13487102 0.085180014 0.56238425 2433558
0.14491618 0.085281342 0.56320143 2565655
0.15474972 0.084545761 0.56442583 2368278
0.16478442 0.084626466 0.56432682 2762780
0.17506655 0.084933914 0.56518745 3354656
0.18507698 0.08489798 0.56601447 3749671
0.19499888 0.085842326 0.56650031 4143404
0.20493233 0.086364351 0.56639397 4078124
0.21461196 0.08693146 0.56721979 4274218
0.22480223 0.088271916 0.5680359 4406830
0.23473954 0.088897027 0.56828582 4538669
0.24158537 0.089523502 0.56900001 4341549
0.12712686 0.091261625 0.56 3224359
0.13340479 0.091261625 0.56 2632219
0.14579232 0.091630571 0.56012011 3092000
0.15540272 0.091729514 0.5610925 3157022
0.16525678 0.092160396 0.56139779 2434330
0.17515683 0.09243042 0.56162208 3552038
0.18502568 0.092856407 0.56205165 3683625
0.19540608 0.094232805 0.56189477 3881256
0.20502053 0.094982021 0.56207776 4143402
0.21474813 0.095249914 0.56227636 3946280
0.22484928 0.094859533 0.5641185 4603440
0.23493804 0.095068172 0.56511289 4013101
0.24469446 0.095741682 0.5666039 4801077
0.25498238 0.097079642 0.56686884 4604211
0.26494211 0.09646415 0.56700027 4471602
0.27290171 0.097169518 0.56801975 4273963
0.19955063 0.10181584 0.56 4144685
0.20489253 0.10156822 0.56038713 4275759
0.21552843 0.10141069 0.56022227 4800557
0.22551544 0.1025783 0.5608964 4208683
0.23516457 0.10410103 0.56155837 4406315
0.24498935 0.10463239 0.56202817 4143143
0.25498804 0.10419777 0.5620001 4668461
0.26488152 0.10490618 0.56225759 4012843
0.27182779 0.1043928 0.56349993 3682854
0.26789826 0.11018644 0.56 4077100
0.27124652 0.11018643 0.56 3286559
-0.067181088 -0.050092697 0.57850003 14342875
-0.054498818 -0.050086509 0.57842863 14410474
-0.048382364 -0.050092697 0.57850003 13685464
-0.020579636 -0.050135992 0.57900006 13092294
-0.014653246 -0.050092701 0.57850009 12895427
-0.005777806 -0.050128773 0.57891667 12566205
0.00049240614 -0.050135992 0.57900006 12434620
0.039101668 -0.050107133 0.57866669 11974320
0.045567945 -0.050049398 0.57800001 12369085
0.052861944 -0.050078262 0.57833338 12171960
0.098450691 -0.050479483 0.57862502 11511970
0.10531233 -0.052370287 0.57679415 11315362
0.112213 -0.052245647 0.57644445 10920093
0.12090407 -0.050135992 0.57900006 10198163
-0.10315158 -0.041378591 0.5758096 13290702
-0.094920218 -0.041558195 0.57484996 13619925
-0.085337736 -0.041701052 0.57792103 14605793
-0.074273154 -0.043333553 0.57739699 14013655
-0.064763606 -0.044696338 0.57430369 14342878
-0.054841526 -0.045500342 0.57308781 14211549
-0.044987839 -0.04441721 0.57559294 13225682
-0.035011511 -0.043673102 0.57596362 13751511
-0.024579732 -0.044379257 0.57511711 13159112
-0.015441242 -0.045688596 0.57286572 12829634
-0.0052309884 -0.046188183 0.57099986 12632256
0.0048923227 -0.044284754 0.57331371 12303291
0.015457819 -0.04312966 0.57585704 12567493
0.025119936 -0.043416932 0.57468736 13027527
0.035158392 -0.044085544 0.57431275 12565947
0.044997238 -0.045276251 0.5732044 12434620
0.055111058 -0.045141004 0.57340866 12237498
0.064717688 -0.045636788 0.57344449 12105913
0.074981786 -0.043991394 0.57343149 11711155
0.084902376 -0.044568665 0.57660925 11513516
0.094892189 -0.044726048 0.57601589 11446435
0.10498767 -0.045173913 0.57400668 11446434
0.11474573 -0.044615947 0.57331097 10789538
0.12454747 -0.04366482 0.57564628 10459802
0.13183394 -0.04218008 0.57824999 9999509
-0.12160496 -0.031065041 0.57700002 14146012
-0.11515944 -0.033606246 0.5739091 13487567
-0.1046449 -0.035544559 0.57429999 14408924
-0.09440317 -0.036629044 0.57201219 13882326
-0.084884696 -0.035869084 0.57350469 14474464
-0.075353146 -0.036306851 0.57254022 13750739
-0.066166215 -0.038168017 0.57093745 14079450
-0.053149398 -0.038771663 0.57050008 14080481
-0.04434013 -0.036854383 0.57228839 13159376
-0.035430022 -0.035514187 0.5733332 13817304
-0.025850764 -0.036326896 0.57176924 13487823
-0.018295059 -0.038513307 0.57033336 13026758
0.0078421356 -0.038012434 0.57086962 11843253
0.015872391 -0.035357386 0.57225192 12435392
0.025030568 -0.034679465 0.57224602 12698306
0.033366434 -0.035998501 0.57099974 12434617
0.041603312 -0.038984425 0.57000005 12565944
0.077152953 -0.038422376 0.57045001 11448498
0.085761726 -0.036516815 0.57144922 11447723
0.094826527 -0.036313817 0.57097775 11249312
0.10337504 -0.038431264 0.57039136 11577504
0.11604 -0.038648184 0.57050008 10789279
0.12548457 -0.03804151 0.5709033 10394776
0.13545479 -0.035997428 0.57246816 9933972
0.14353782 -0.032762311 0.57308 9276296
-0.13203019 -0.02230357 0.57711112 16054268
-0.12482002 -0.024547273 0.57405549 14738669
-0.1150452 -0.024559595 0.57446676 14476262
-0.10658804 -0.026531436 0.57205886 14540772
-0.033632495 -0.027161313 0.57062507 13817041
-0.029150244 -0.027871303 0.57000005 13750996
0.018537119 -0.025488352 0.57029414 10659234
0.02443886 -0.025817474 0.57028937 10657950
0.034194559 -0.023055617 0.57000005 8882044
0.046033017 -0.021411125 0.57160002 7303013
0.054195017 -0.021168921 0.57315004 7367781
0.13976923 -0.02861218 0.57000005 9081487
0.14684477 -0.027401198 0.57099998 8751233
0.15226258 -0.024527045 0.57483345 8224375
-0.14196318 -0.012712519 0.57776934 14145500
-0.13474691 -0.014966352 0.57445753 15462648
-0.12529446 -0.016313072 0.57448387 15527669
-0.11664406 -0.018056234 0.57085723 15066349
-0.014939943 -0.014239226 0.57406241 6710880
-0.0046966234 -0.016549539 0.57488561 5526090
0.0045393277 -0.015677247 0.57469124 6315606
0.014686917 -0.0182436 0.57421273 7763828
0.024601154 -0.019528696 0.57529169 8158070
0.035276048 -0.019061433 0.57466668 7762538
0.043877337 -0.019181654 0.57609379 7499623
0.055550683 -0.019842811 0.57545459 6776160
0.066331789 -0.015050669 0.57336497 4736578
0.072344072 -0.014017728 0.57118857 6907228
0.15327266 -0.015011245 0.57358521 5525828
-0.16100481 -0.00089527329 0.57828575 11184035
-0.1542327 -0.0034861646 0.57632464 12565690
-0.1453872 -0.0048317173 0.57423753 13881555
-0.13595237 -0.0063169599 0.5732438 15921912
-0.12764609 -0.0087852161 0.57180005 15856893
-0.013058442 -0.0088751446 0.57274997 3289130
-0.005369775 -0.008651874 0.57387805 1512720
0.0052714562 -0.00805612 0.57468003 3026472
0.01533843 -0.003583095 0.574 7894904
0.025513457 -0.0019548242 0.57415384 12698307
0.031740002 -0.0024482096 0.57255566 10196883
0.058642071 -0.006129913 0.57359999 7499369
0.064699277 -0.0084750289 0.5724231 2104088
0.070661925 -0.0093548978 0.57033342 3550255
0.15471111 -0.0073744175 0.57421058 6643799
-0.32134804 0.0052690492 0.57749999 11775400
-0.31580061 0.0067750965 0.57747656 11446440
-0.3049714 0.0071828063 0.57855177 11644333
-0.2946699 0.0072473278 0.57848144 11513521
-0.28529292 0.0077133644 0.5788464 12039091
-0.27946472 0.0085646976 0.57900006 11908285
-0.1638246 0.0058577661 0.57552701 11316393
-0.15623915 0.0028814159 0.57179165 12894913
-0.14670239 0.0010228179 0.57000011 13684435
0.15968297 0.0064834836 0.57233334 9933194
0.16033398 0.0050132866 0.57466668 9604745
-0.31457233 0.014252882 0.57243472 11052196
-0.30520618 0.014399759 0.5736596 11052198
-0.29509148 0.014480284 0.57398605 11381163
-0.28508031 0.014461731 0.5749405 11710128
-0.27527556 0.014994641 0.57614219 11184041
-0.26509535 0.015620483 0.57586521 11381678
-0.25486714 0.015188836 0.57580817 11381934
-0.24500564 0.015117193 0.57640481 11710900
-0.23508641 0.01553092 0.57663333 11974330
-0.22503024 0.016408674 0.57737738 11711670
-0.21532592 0.016384499 0.5775727 11251121
-0.20646541 0.018262409 0.57834291 11316399
-0.19607964 0.01910072 0.57900006 11381680
-0.18304133 0.018724434 0.57900012 10395815
-0.17409226 0.016249273 0.57743931 10199199
-0.16700733 0.014224728 0.57306886 11184810
0.15742047 0.016839456 0.57284617 4472636
-0.31199986 0.020450203 0.57000011 10394011
-0.30434406 0.020285567 0.57000005 11447467
-0.29488459 0.020736465 0.57033336 11250351
-0.28519008 0.02069545 0.57030767 11578543
-0.27440044 0.021071123 0.57071793 11578542
-0.26521304 0.021329548 0.57064444 11381422
-0.25459462 0.021156125 0.5707953 11118509
-0.2449078 0.022352846 0.57125974 10132383
-0.23486915 0.023550361 0.57163382 11776434
-0.2250917 0.024446724 0.57239836 11513777
-0.21497689 0.02453872 0.57235539 11251120
-0.20503916 0.024930852 0.57398701 11316656
-0.19494559 0.02499813 0.57568127 11053486
-0.18497884 0.025138188 0.57582372 10856363
-0.17532443 0.024698449 0.57384491 10133407
-0.16905414 0.022854658 0.57027286 10131608
0.1474472 0.027346546 0.57510006 1974551
0.15490842 0.022507213 0.57706255 3222559
-0.20353098 0.031036323 0.57015002 11579314
-0.19511367 0.031579301 0.57059985 11054257
-0.18492335 0.031969629 0.57083619 10462634
-0.17681617 0.031673487 0.57082766 9541273
0.1176654 0.039323188 0.57169235 2302741
0.12531245 0.037349746 0.57411116 2104850
0.13524579 0.03511199 0.57505894 1644814
0.14245401 0.032206796 0.57646668 1906702
0.076300956 0.049179684 0.57000011 2698014
0.086024173 0.047981381 0.57080644 2302741
0.095700525 0.046974868 0.57307136 1776914
0.10478021 0.045282122 0.57560223 1776142
0.11422624 0.043043748 0.57627457 1776400
0.12272822 0.041114669 0.57813346 1447178
0.055936389 0.057443287 0.56999993 1709579
0.065953247 0.056681309 0.57003981 1644042
0.074958161 0.055087518 0.57124174 1513484
0.084934093 0.054658458 0.57306755 1447177
0.095088519 0.054957353 0.5762285 1316105
0.10477634 0.056104131 0.57770979 1250312
0.11490157 0.056696162 0.57817525 1710607
0.12505519 0.056740865 0.57821947 1578766
0.13472958 0.057941049 0.57841367 1579024
0.14405692 0.058923017 0.57876337 1578766
0.15401728 0.059739653 0.57900006 1644556
0.16380073 0.059739653 0.57900006 2236433
0.058272999 0.060292814 0.57000005 1578760
0.065126091 0.060478032 0.57000011 1643273
0.075362727 0.060973957 0.57036662 1381642
0.085784569 0.062720306 0.57117093 1446923
0.095329717 0.064665496 0.57216787 1579021
0.10501028 0.064962253 0.57334733 1777171
0.11504991 0.065312408 0.57362562 2171416
0.1250135 0.065173775 0.57420838 1776146
0.1350684 0.065109402 0.57454902 1513485
0.14513205 0.065524988 0.57534319 1513228
0.15494646 0.065466404 0.57619363 1710863
0.16495609 0.065902747 0.57653487 1973522
0.17460239 0.066388302 0.57763332 2762267
0.18477711 0.067440011 0.57851923 3157538
0.19413242 0.068060204 0.5789336 3749676
0.20067681 0.068770528 0.57900006 3551004
0.097983889 0.070961408 0.57000005 2236180
0.10590514 0.071111083 0.57027793 2434334
0.11389402 0.070946455 0.57027787 2105626
0.12537746 0.070881277 0.57025009 1973779
0.13543376 0.071710326 0.57046139 1710607
0.1449133 0.072460122 0.57104599 1710094
0.15493643 0.073049299 0.57128555 1973265
0.16521515 0.073153369 0.57145643 2499608
0.17553273 0.074191295 0.57247537 3026206
0.18513085 0.074347883 0.57365775 3748904
0.19501606 0.075033419 0.57515371 3815724
0.20496242 0.075812705 0.57663542 3815469
0.21487862 0.076105021 0.57672435 4406320
0.22505833 0.075725898 0.57728678 4472366
0.23493883 0.075373508 0.57751781 4538417
0.24394527 0.077090345 0.57845771 4341295
0.25344053 0.079139322 0.57900017 4669999
0.27668667 0.07930655 0.57900006 4470056
0.28044954 0.07930655 0.57900006 4604475
0.19611265 0.081491843 0.57047826 4208942
0.20514134 0.081869103 0.57090002 3749674
0.21548338 0.082251273 0.57152718 4274729
0.22519554 0.082996167 0.57200992 4472108
0.23492534 0.083932787 0.57245147 4406314
0.24499664 0.084759913 0.57461828 4209708
0.25523403 0.084959164 0.57635003 4472879
0.26499748 0.084854342 0.57587153 4801589
0.27488416 0.084736645 0.57627833 3946539
0.28044954 0.081313409 0.57900006 4998457
0.24793181 0.091259047 0.57052636 4473133
0.2552357 0.091994278 0.57124621 4406575
0.2647953 0.091297686 0.5708518 4471600
0.27394176 0.091907375 0.57107985 4142121
-0.073900685 -0.051186133 0.58548009 14342621
-0.065787412 -0.051650379 0.58372724 14540515
-0.054569148 -0.052091409 0.5848183 14081248
-0.045155067 -0.050824609 0.58454549 13488341
-0.03531146 -0.050756559 0.58616668 13949404
-0.024921279 -0.051258299 0.58448488 13225163
-0.014923765 -0.052148279 0.58545452 12829634
-0.0045618839 -0.05185809 0.58604532 12631997
0.0032375057 -0.050950047 0.5848667 12697536
0.036753535 -0.051187512 0.5852778 10855071
0.044890892 -0.051960345 0.58257902 8354685
0.055538174 -0.05155104 0.58319229 11513516
0.06398923 -0.051066451 0.58407146 11842996
0.07387884 -0.050801273 0.5854286 11580080
0.085440338 -0.050915308 0.58799994 11579305
0.09522634 -0.051568694 0.58417648 11512226
0.1035137 -0.053299226 0.58236843 11380898
0.1130303 -0.053450506 0.58411115 10723486
0.12365338 -0.050958604 0.58850002 10198164
-0.1129929 -0.041125841 0.5864445 10986407
-0.10542112 -0.043586634 0.58472729 11775922
-0.094493061 -0.044983219 0.58436674 13685714
-0.084343679 -0.045918126 0.58370167 14868447
-0.075990781 -0.047268108 0.58151072 14013656
-0.067124456 -0.04846368 0.58060008 15396851
-0.042428102 -0.047915339 0.58027273 13751514
-0.035188202 -0.047685873 0.58057147 13949411
-0.027906718 -0.048349444 0.58054537 13817560
0.0081791878 -0.048499469 0.58257145 12040121
0.014387302 -0.047793906 0.58452386 12435907
0.025084913 -0.048264362 0.58482611 13158857
0.033096101 -0.048720811 0.58246672 12566715
0.087942488 -0.048714835 0.57999998 11447464
0.12578461 -0.04819249 0.58326316 10196889
0.13480254 -0.043722458 0.58409685 9736334
0.14221947 -0.041482646 0.58700001 9406855
-0.12362994 -0.033162009 0.58624995 12566465
-0.11493088 -0.03527962 0.58447063 13355985
-0.10908753 -0.036060121 0.58085716 14869224
0.13863197 -0.039719656 0.58075005 9735566
0.14542611 -0.03688911 0.58175004 9144449
0.15238339 -0.032207545 0.5856154 8749179
-0.14253446 -0.021125201 0.5871765 12105148
-0.13500017 -0.023430184 0.58505559 14803944
-0.12600546 -0.026011806 0.58321875 15395823
-0.11649601 -0.028629985 0.58162504 14804207
0.1570185 -0.024875641 0.58509529 8224114
-0.32483196 -0.012707212 0.58819228 11776175
-0.31520092 -0.011907339 0.58858335 12038834
-0.30481952 -0.011839191 0.58851439 11447466
-0.29511231 -0.012279168 0.58813953 12235701
-0.28611651 -0.011735022 0.58827281 11841202
-0.27969798 -0.011192219 0.58900005 12235962
-0.16180007 -0.01119222 0.58900005 9999764
-0.15410584 -0.012639591 0.58648932 10986659
-0.14526425 -0.01486931 0.58437502 13223886
-0.13612261 -0.015786106 0.58190626 16185594
-0.12917285 -0.017806057 0.58000004 16317438
-0.011346422 -0.013100044 0.58208692 2629657
-0.0054350458 -0.013000416 0.58183676 1841426
0.0057611791 -0.011625046 0.58103228 4869446
0.013202576 -0.01418302 0.58392596 6644318
0.024538167 -0.018594598 0.58108324 7500136
0.036923781 -0.016487455 0.58388889 7171430
0.044608641 -0.016543502 0.58460528 6776156
0.052020263 -0.018341143 0.58512509 3945775
0.15832332 -0.014889212 0.58377773 5196607
0.16127077 -0.011192219 0.58900005 4869185
-0.32331941 -0.0054630432 0.58385229 11642792
-0.3150427 -0.0049928576 0.58408839 11840941
-0.30481622 -0.0050698221 0.58454925 11907761
-0.29505777 -0.0049511143 0.58444083 11907764
-0.28489348 -0.0051465384 0.5843178 11512748
-0.27552193 -0.0040607532 0.58666652 11841970
-0.26497817 -0.0033873285 0.58751792 11513521
-0.25528413 -0.0031613754 0.58726382 11645364
-0.24546333 -0.0024844764 0.5875892 12039866
-0.23537847 -0.0019776195 0.58815515 11250350
-0.22564213 -0.0015308197 0.58845252 11711670
