# .PCD v0.7 - Point Cloud Data file format
VERSION 0.7
FIELDS x y z rgba
SIZE 4 4 4 4
TYPE F F F U
COUNT 1 1 1 1
WIDTH 435
HEIGHT 1
VIEWPOINT 0 0 0 1 0 0 0
POINTS 435
DATA ascii
0.03452155 0.28910953 -0.45486432 65280
0.063483328 0.35598522 -0.45515168 65280
0.0033910319 0.35598522 -0.45515168 65280
0.064604297 0.34977019 -0.45561042 65280
0.054944508 0.34990531 -0.45553857 65280
0.045235652 0.34957609 -0.45544484 65280
0.035131339 0.34981692 -0.45551914 65280
0.05522643 0.30426854 -0.45588958 65280
0.025748448 0.28931183 -0.45570526 65280
0.054956336 0.35927778 -0.45696855 65280
0.023462962 0.35529849 -0.45664942 65280
0.01603112 0.35529849 -0.45664942 65280
-0.0062662009 0.35493034 -0.45697111 65280
0.0049960553 0.35006496 -0.45600384 65280
0.025019767 0.34976161 -0.4562569 65280
0.014392421 0.34997788 -0.45639536 65280
-0.0043553137 0.34980732 -0.45692652 65280
0.073767975 0.34834546 -0.45694864 65280
0.064962439 0.33899808 -0.45687616 65280
0.045241397 0.30442443 -0.4563292 65280
0.03514808 0.29569063 -0.4561238 65280
0.024761066 0.29566652 -0.45691895 65280
0.045069113 0.29474813 -0.45670813 65280
0.043877572 0.28897357 -0.45655364 65280
0.034750532 0.28340876 -0.45697623 65280
0.025006233 0.28387466 -0.45675164 65280
0.063288219 0.35917383 -0.45713723 65280
0.044988006 0.35998151 -0.45773596 65280
0.035302766 0.35965267 -0.45756206 65280
0.014624531 0.35981146 -0.45764753 65280
0.0050888518 0.35958415 -0.45706058 65280
-0.0045851339 0.35983968 -0.45780241 65280
-0.014372353 0.35476235 -0.45781544 65280
-0.025611587 0.35429659 -0.45774835 65280
-0.015126203 0.34941053 -0.45739362 65280
-0.0253396 0.3495512 -0.45717576 65280
0.074485689 0.33926737 -0.45738679 65280
0.05547021 0.33925617 -0.45722795 65280
0.076422751 0.31117344 -0.45745969 65280
0.064231917 0.31117344 -0.45745969 65280
0.057538927 0.31117344 -0.45745969 65280
0.015471525 0.31053028 -0.45796341 65280
0.07508146 0.30561733 -0.45765984 65280
0.065460987 0.30522203 -0.45712343 65280
0.035542347 0.30443463 -0.45701909 65280
0.025183955 0.30475211 -0.45769048 65280
0.054808345 0.29410464 -0.45733595 65280
0.044380441 0.284062 -0.45705166 65280
0.024626013 0.35967284 -0.45821676 65280
0.069039889 0.35654515 -0.45825166 65280
-0.034522541 0.34784937 -0.45878062 65280
0.045310672 0.34013996 -0.4584223 65280
0.035030294 0.340325 -0.45867065 65280
0.015023093 0.34014475 -0.45859602 65280
0.0054798159 0.34016612 -0.45830095 65280
-0.0047337972 0.34026769 -0.4585855 65280
-0.02535579 0.34039041 -0.45875159 65280
0.024692474 0.339957 -0.45817277 65280
0.053508211 0.3124465 -0.45882148 65280
0.033425365 0.31018886 -0.4585495 65280
0.0259862 0.31011817 -0.45802078 65280
0.015628574 0.30512062 -0.45805526 65280
0.0056844228 0.30428368 -0.45898867 65280
-0.014595385 0.30434602 -0.45878425 65280
-0.024567842 0.3039898 -0.45824555 65280
-0.034039527 0.30384886 -0.45857 65280
0.064915508 0.29508966 -0.45886931 65280
0.051991105 0.28517699 -0.45838845 65280
0.018233966 0.28520191 -0.4582445 65280
-0.035777606 0.35346782 -0.45983651 65280
-0.015054532 0.34058625 -0.45901722 65280
-0.034823265 0.34043059 -0.45957735 65280
0.083762772 0.33939365 -0.45976689 65280
0.074879393 0.31823426 -0.45939595 65280
0.065763682 0.31795457 -0.45981896 65280
0.027019467 0.314587 -0.45991355 65280
0.0049928022 0.30988097 -0.45984575 65280
0.081294432 0.30428749 -0.45998842 65280
-0.0049038166 0.30395368 -0.45903337 65280
0.015295378 0.29523891 -0.4590905 65280
-0.034412008 0.29579723 -0.45997253 65280
0.076551937 0.35411739 -0.46057212 65280
0.081288449 0.34681463 -0.46002775 65280
-0.041121781 0.34681463 -0.46002775 65280
0.034908772 0.31619546 -0.4605656 65280
0.012997787 0.31530032 -0.46070173 65280
-0.014701814 0.31035948 -0.46007672 65280
-0.024805008 0.31072137 -0.46061236 65280
-0.035595793 0.31009459 -0.46067598 65280
-0.0042473008 0.309811 -0.46027052 65280
-0.042620454 0.30322695 -0.46022877 65280
-0.05685566 0.30302349 -0.46066052 65280
-0.061150484 0.30302349 -0.46066052 65280
0.074311897 0.297068 -0.46084663 65280
0.0053837975 0.2961224 -0.46047014 65280
-0.024506733 0.29632518 -0.46080118 65280
-0.044530291 0.29608455 -0.46056744 65280
-0.05480139 0.29613316 -0.46063787 65280
0.07181593 0.35968906 -0.46148783 65280
-0.015150366 0.35945874 -0.46109122 65280
-0.045379449 0.35306203 -0.46185923 65280
-0.048625894 0.34611177 -0.46153408 65280
-0.04452448 0.34112132 -0.46127123 65280
0.074558027 0.33043605 -0.46100181 65280
0.064399831 0.3302882 -0.4619166 65280
0.083073191 0.31687146 -0.46133864 65280
0.044227596 0.31566393 -0.4610045 65280
-0.0045802961 0.29658294 -0.46119577 65280
-0.014564477 0.29675856 -0.46147224 65280
-0.064572804 0.29665381 -0.46129328 65280
-0.044774845 0.36018121 -0.46292499 65280
-0.025158757 0.35976571 -0.46239093 65280
-0.05498274 0.34581798 -0.46216226 65280
-0.065377124 0.3458465 -0.46229297 65280
-0.075439259 0.34531558 -0.46279204 65280
-0.055261847 0.3405003 -0.46217707 65280
-0.064641654 0.34066767 -0.46257135 65280
0.078682661 0.32514691 -0.46248814 65280
0.0060055642 0.31588349 -0.46241698 65280
-0.015340801 0.31591672 -0.46246582 65280
-0.045489848 0.30941752 -0.46266484 65280
0.084572621 0.30840158 -0.46251395 65280
-0.06533768 0.30880508 -0.46272647 65280
-0.068432942 0.3023091 -0.46217296 65280
0.05584009 0.28645989 -0.4626286 65280
0.014452241 0.28606063 -0.46271285 65280
-0.034996096 0.36037418 -0.46317303 65280
-0.050148591 0.36090845 -0.46385968 65280
-0.055196498 0.35373425 -0.46320522 65280
-0.06460163 0.35376537 -0.46369353 65280
0.082500391 0.35140714 -0.4632487 65280
0.08738558 0.3457472 -0.46399301 65280
-0.073896758 0.34041947 -0.463182 65280
0.056790322 0.33285904 -0.46359724 65280
0.08447513 0.33167976 -0.4636319 65280
0.035048857 0.33140683 -0.46375939 65280
0.063752137 0.32469988 -0.46343374 65280
0.034444164 0.32346177 -0.4636673 65280
-0.0046709366 0.31597927 -0.46323687 65280
-0.024136888 0.31557611 -0.46316004 65280
-0.035170902 0.31513387 -0.46328196 65280
-0.055004075 0.30946481 -0.46319655 65280
-0.073624715 0.2952714 -0.46331942 65280
0.064218007 0.28918344 -0.46358767 65280
-0.065418981 0.28630543 -0.46366027 65280
0.054953802 0.36908731 -0.46460739 65280
0.025810391 0.36845154 -0.46489397 65280
-0.074981079 0.35252529 -0.46409178 65280
-0.085341036 0.34420848 -0.46481109 65280
-0.081554249 0.33928168 -0.4640331 65280
0.090191014 0.33895415 -0.46420723 65280
-0.035173878 0.33349308 -0.46466324 65280
-0.0047473842 0.33206752 -0.46470219 65280
-0.015078277 0.33203334 -0.46465117 65280
-0.025321022 0.33207855 -0.46455976 65280
0.024761962 0.33183226 -0.46436518 65280
0.027851626 0.32426223 -0.46477062 65280
-0.04256108 0.31607679 -0.46466815 65280
-0.06445086 0.3162654 -0.46494538 65280
-0.070281595 0.3162654 -0.46494538 65280
-0.074352257 0.30882004 -0.46498621 65280
-0.076373391 0.30052495 -0.4648205 65280
0.0056953235 0.28829855 -0.46433705 65280
-0.075288393 0.28661263 -0.46433896 65280
0.024904171 0.28306016 -0.46470636 65280
0.034808684 0.28252971 -0.4646486 65280
0.061456047 0.37003613 -0.46580181 65280
0.03476169 0.37012652 -0.46591556 65280
0.014927508 0.37003613 -0.46580181 65280
0.04463907 0.36971986 -0.46540368 65280
-0.067628309 0.35986254 -0.46554837 65280
-0.084537506 0.35335553 -0.46526578 65280
0.090138175 0.33613619 -0.46532804 65280
0.044463772 0.33317336 -0.46535259 65280
0.01441637 0.33285251 -0.46563473 65280
0.0048570596 0.33238354 -0.46513909 65280
-0.044694666 0.33269274 -0.46557179 65280
-0.055073038 0.33283842 -0.46577182 65280
-0.075074404 0.33233023 -0.4652271 65280
-0.084685683 0.3326143 -0.46528941 65280
0.086440183 0.32337061 -0.46598089 65280
-0.084056199 0.29417524 -0.46536523 65280
0.071924075 0.29264444 -0.46561292 65280
-0.014609932 0.29201236 -0.46594885 65280
-0.024976216 0.29207331 -0.46582216 65280
-0.0042369892 0.29066634 -0.46581519 65280
-0.035129651 0.29058558 -0.46559966 65280
-0.044991355 0.28929266 -0.46540508 65280
-0.055247981 0.28750643 -0.46514323 65280
-0.084807403 0.28763849 -0.46546799 65280
0.045372702 0.28344169 -0.46533388 65280
-0.086123183 0.27220795 -0.46541089 65280
-0.090668231 0.27168852 -0.4656184 65280
0.0054792734 0.37079516 -0.46675724 65280
-0.0087284688 0.3699975 -0.46695489 65280
-0.01448846 0.36658353 -0.46650499 65280
-0.037601724 0.36505693 -0.46675041 65280
-0.055586848 0.364232 -0.46690589 65280
-0.064964667 0.36423162 -0.4669061 65280
0.078592673 0.36143842 -0.46697554 65280
-0.074873194 0.36000997 -0.46625397 65280
-0.085177936 0.35962054 -0.46689039 65280
-0.094383933 0.35281354 -0.46696466 65280
-0.096532859 0.33663458 -0.46673498 65280
-0.065479286 0.33308083 -0.4661054 65280
-0.094709821 0.33159488 -0.46662125 65280
0.04566456 0.32419282 -0.46633351 65280
0.012430107 0.32458067 -0.46618691 65280
0.005011877 0.3235909 -0.46628842 65280
-0.014809896 0.3237358 -0.46663621 65280
-0.06499283 0.32283238 -0.46679276 65280
-0.075320855 0.32195061 -0.46664619 65280
0.082256787 0.30069682 -0.46690479 65280
-0.085244089 0.29985693 -0.46674129 65280
-0.084622413 0.27740136 -0.46608782 65280
-0.086708218 0.26869169 -0.46697959 65280
-0.044140022 0.36602157 -0.46737009 65280
0.07431417 0.3654604 -0.46726394 65280
-0.074951008 0.36469936 -0.4675068 65280
-0.094873309 0.34450668 -0.46713871 65280
0.09202145 0.34160176 -0.4673298 65280
-0.10273167 0.33113062 -0.46780086 65280
0.055880707 0.32526711 -0.46774727 65280
-0.0047385283 0.32429969 -0.46763059 65280
-0.025611304 0.32341981 -0.46715808 65280
-0.07828936 0.31505746 -0.46747527 65280
-0.095007554 0.29987818 -0.46766445 65280
-0.098474793 0.29225457 -0.46768075 65280
-0.094097093 0.28814152 -0.46719229 65280
-0.09206403 0.26752627 -0.46776858 65280
-0.024745559 0.36608469 -0.46806449 65280
-0.084960848 0.36494362 -0.46881837 65280
-0.096048579 0.35867691 -0.46857706 65280
-0.10615805 0.33534038 -0.46875635 65280
-0.034827717 0.32357889 -0.46848646 65280
-0.045020357 0.323466 -0.46813247 65280
-0.054806177 0.32279867 -0.46802413 65280
-0.085197255 0.32251576 -0.46853065 65280
-0.083835162 0.30748376 -0.46865639 65280
-0.075042889 0.27753454 -0.46846479 65280
-0.095258184 0.27760574 -0.46811756 65280
0.084855534 0.35868999 -0.46994698 65280
-0.10454558 0.34426355 -0.46919897 65280
0.048170872 0.33217126 -0.46939939 65280
0.088863164 0.33167553 -0.46920997 65280
-0.034510441 0.33128643 -0.4695113 65280
-0.10503925 0.32306194 -0.46998248 65280
-0.094746627 0.32272917 -0.46922842 65280
-0.085173517 0.31345284 -0.46991667 65280
-0.095014751 0.30709893 -0.46949571 65280
-0.10380832 0.30725598 -0.46973577 65280
-0.1050615 0.30063438 -0.46977988 65280
0.077236809 0.29629052 -0.46905392 65280
-0.10509019 0.29050529 -0.46976435 65280
-0.10389982 0.2855503 -0.46961141 65280
0.043684676 0.37598562 -0.47084945 65280
0.039805911 0.37582695 -0.47065073 65280
0.017428111 0.37598562 -0.47084945 65280
-0.093139768 0.36456218 -0.47059992 65280
-0.10692418 0.35072622 -0.47089159 65280
0.092602327 0.33490068 -0.47089285 65280
-0.035248581 0.32905078 -0.47060555 65280
-0.094962381 0.31320006 -0.47080559 65280
-0.10483968 0.31305248 -0.47058433 65280
-0.051222362 0.28584671 -0.47092614 65280
-0.11054093 0.28532699 -0.47006992 65280
0.034051392 0.28406295 -0.47074202 65280
0.028324964 0.28406295 -0.47074202 65280
-0.057876281 0.28348827 -0.47048134 65280
-0.065697037 0.28045481 -0.47020659 65280
-0.10504599 0.27872458 -0.47013673 65280
-0.11460603 0.2788941 -0.47095543 65280
-0.10471921 0.35748503 -0.47120115 65280
-0.1122365 0.34414971 -0.47163787 65280
0.053509474 0.33236 -0.47111112 65280
0.053338587 0.32997444 -0.4719266 65280
-0.11405081 0.32223144 -0.47151324 65280
0.091563761 0.32172832 -0.47110125 65280
0.089081466 0.31084472 -0.47122532 65280
-0.10983519 0.30651623 -0.47126162 65280
-0.11832616 0.28439316 -0.47198215 65280
-0.096268997 0.26696572 -0.47128376 65280
0.060076773 0.37709665 -0.47224078 65280
0.056978866 0.37709665 -0.47224078 65280
0.025248542 0.37741408 -0.47263831 65280
-0.015011359 0.37341598 -0.47249895 65280
0.075311854 0.37173784 -0.47282496 65280
-0.11483228 0.33631274 -0.47227383 65280
-0.11630736 0.32798138 -0.47236964 65280
-0.11476589 0.31328952 -0.47256806 65280
-0.11415014 0.29943246 -0.47281447 65280
0.07242965 0.29376808 -0.47205356 65280
-0.11511413 0.29085281 -0.47203955 65280
-0.043969315 0.28704491 -0.47221452 65280
-0.10511717 0.26853785 -0.4723863 65280
-0.11509318 0.26868078 -0.47263393 65280
-0.045022987 0.37318525 -0.47356549 65280
-0.023918113 0.37236577 -0.47362369 65280
-0.038454778 0.37261465 -0.47311381 65280
-0.076808758 0.37293854 -0.47364268 65280
-0.1157249 0.34981573 -0.4737846 65280
-0.12050296 0.320613 -0.47395942 65280
0.09146557 0.31531918 -0.47356525 65280
-0.11598296 0.30572224 -0.47373325 65280
-0.12509489 0.29156515 -0.47374177 65280
0.064744271 0.29042217 -0.47350904 65280
-0.014730207 0.29083547 -0.4734368 65280
-0.024879731 0.2907052 -0.47317114 65280
-0.004810703 0.28948885 -0.47351986 65280
-0.034547232 0.28876156 -0.47322017 65280
0.015217455 0.28667781 -0.47379482 65280
-0.12578261 0.28288105 -0.47348785 65280
-0.12396782 0.27781171 -0.47319064 65280
-0.076643825 0.27315137 -0.47371244 65280
-0.084782444 0.26865438 -0.47334519 65280
-0.061463531 0.37267971 -0.47402298 65280
-0.08521264 0.37275878 -0.47434136 65280
-0.10660928 0.36546072 -0.47465247 65280
-0.1143176 0.35796893 -0.47442359 65280
0.095286943 0.34803829 -0.47410053 65280
-0.11905144 0.34283608 -0.47460151 65280
-0.12421589 0.29824656 -0.47452617 65280
0.05510417 0.28755754 -0.47454676 65280
0.004890068 0.28794631 -0.47439671 65280
0.048719868 0.28613266 -0.47417185 65280
-0.13058344 0.27647877 -0.4747746 65280
-0.12517582 0.26967692 -0.474767 65280
-0.095501781 0.37110287 -0.47571084 65280
-0.12461679 0.33503732 -0.47506738 65280
0.094150767 0.32850441 -0.47553968 65280
-0.12512685 0.32608566 -0.47522366 65280
-0.12440811 0.31486472 -0.47538775 65280
-0.12497039 0.30462137 -0.47552878 65280
-0.13470127 0.29145467 -0.47547716 65280
0.021359706 0.28665006 -0.47502929 65280
0.044315077 0.28590584 -0.47519857 65280
0.035463229 0.28554145 -0.47536707 65280
-0.13522711 0.28135636 -0.47598791 65280
-0.11611179 0.36373276 -0.47625768 65280
-0.12261146 0.35602629 -0.47664869 65280
-0.12503217 0.34868699 -0.47637841 65280
-0.12615465 0.34120002 -0.47629505 65280
-0.13378339 0.33463773 -0.47669542 65280
-0.12821119 0.31927451 -0.47612736 65280
0.086152799 0.304663 -0.47646847 65280
-0.13492166 0.30389717 -0.47671995 65280
-0.13806929 0.29743403 -0.47665703 65280
0.024295265 0.28637326 -0.47653556 65280
-0.055244539 0.28309608 -0.47694868 65280
-0.13775623 0.275563 -0.47662055 65280
-0.13451375 0.27044424 -0.47629821 65280
0.043545485 0.38292426 -0.47707015 65280
-0.10432897 0.37010875 -0.47734052 65280
-0.13559918 0.34011883 -0.47781304 65280
-0.13478489 0.32751143 -0.47766846 65280
-0.1356792 0.31860191 -0.47781295 65280
-0.13403721 0.31233081 -0.4773497 65280
-0.14395835 0.29052204 -0.4779672 65280
-0.063388243 0.27929023 -0.47775346 65280
-0.11400221 0.36949739 -0.47888628 65280
0.088806421 0.36577991 -0.47882432 65280
-0.12506396 0.36218557 -0.4789947 65280
-0.13476738 0.34867084 -0.47843045 65280
-0.1412756 0.3114424 -0.47883549 65280
-0.14591812 0.29620555 -0.47896373 65280
-0.046108782 0.28576803 -0.4780018 65280
-0.14497338 0.28274268 -0.4784427 65280
-0.14609389 0.27341187 -0.47867057 65280
-0.14304943 0.26926589 -0.47816929 65280
-0.095392756 0.26479867 -0.47845846 65280
-0.10544018 0.2642903 -0.47886443 65280
-0.11496399 0.26376051 -0.47839665 65280
0.018593125 0.38617396 -0.47987252 65280
0.02367283 0.38510662 -0.47916597 65280
-0.063615941 0.37919316 -0.47980911 65280
0.086845361 0.36937928 -0.47974187 65280
0.097481921 0.33901784 -0.47960466 65280
-0.1446081 0.30528146 -0.47933155 65280
-0.15045419 0.28923717 -0.47931653 65280
-0.037448879 0.28769255 -0.47957158 65280
-0.13463131 0.26417956 -0.4798581 65280
-0.12496468 0.2635372 -0.47930661 65280
-0.033338923 0.37982339 -0.48060656 65280
-0.12128873 0.37030739 -0.48094723 65280
-0.13623984 0.3557837 -0.48089612 65280
-0.14314324 0.34791797 -0.48077118 65280
-0.14401615 0.3266713 -0.48039836 65280
-0.14485271 0.31760079 -0.4802295 65280
-0.14854741 0.31042162 -0.48088834 65280
0.075417928 0.29744104 -0.48061731 65280
-0.15442252 0.28291366 -0.48048228 65280
-0.15476188 0.27310821 -0.48084855 65280
-0.14161435 0.26592919 -0.48010078 65280
-0.016909048 0.38319504 -0.48173961 65280
-0.039779421 0.38268694 -0.48172662 65280
-0.084302247 0.38281345 -0.48188594 65280
-0.096197486 0.37839392 -0.48129106 65280
-0.14453211 0.34097239 -0.48121744 65280
-0.14599967 0.33260259 -0.48185483 65280
0.09491875 0.31944564 -0.48156434 65280
-0.15222569 0.30409926 -0.48198491 65280
0.08085987 0.30067816 -0.48116127 65280
-0.15500408 0.29601723 -0.48199725 65280
0.059771329 0.2907894 -0.48188892 65280
-0.0054362132 0.290272 -0.48103148 65280
-0.024463216 0.29044446 -0.48131725 65280
-0.067256466 0.27695224 -0.48196545 65280
-0.074635856 0.27397177 -0.48185426 65280
-0.045389064 0.3833195 -0.48252293 65280
-0.12706816 0.36985403 -0.48288721 65280
0.095243901 0.36190626 -0.48258287 65280
-0.13433686 0.36198288 -0.48269305 65280
0.06680239 0.29337555 -0.48240152 65280
-0.015163675 0.29114461 -0.48212475 65280
-0.15784872 0.28798512 -0.48208565 65280
-0.16166371 0.28143477 -0.4829618 65280
0.045032624 0.39038286 -0.48386386 65280
-0.020916702 0.38395202 -0.48331916 65280
0.078673124 0.38192418 -0.48326477 65280
-0.10620911 0.37833351 -0.48371777 65280
-0.14524254 0.35456192 -0.48388299 65280
0.098322257 0.33116287 -0.48307341 65280
-0.1545527 0.31816578 -0.48349056 65280
-0.15561469 0.3089982 -0.48360828 65280
-0.082622081 0.27083459 -0.48324978 65280
0.026737783 0.39057466 -0.48410162 65280
0.013998081 0.39083043 -0.48441863 65280
-0.05115889 0.38521707 -0.48491159 65280
-0.095119774 0.38333905 -0.4845511 65280
-0.11489643 0.37682146 -0.48405254 65280
-0.14913835 0.34713203 -0.48402047 65280
-0.15936032 0.30280307 -0.48456171 65280
0.014485644 0.28948313 -0.48460591 65280
-0.06018528 0.28072903 -0.48497292 65280
-0.16351913 0.27473781 -0.48476085 65280
