# .PCD v0.7 - Point Cloud Data file format
VERSION 0.7
FIELDS x y z rgba
SIZE 4 4 4 4
TYPE F F F U
COUNT 1 1 1 1
WIDTH 1127
HEIGHT 1
VIEWPOINT 0 0 0 1 0 0 0
POINTS 1127
DATA ascii
-0.011899106 0.29823342 -0.44696426 16711680
0.074863508 0.29643062 -0.44661561 16711680
0.11648494 0.29019311 -0.44665316 16711680
0.092461184 0.29005575 -0.44624037 16711680
0.084911034 0.29092911 -0.44683853 16711680
0.075393632 0.29034525 -0.44673413 16711680
0.054008301 0.29050457 -0.44676211 16711680
0.064915717 0.28996485 -0.44600916 16711680
0.11359151 0.28519672 -0.44682798 16711680
0.094224147 0.28560966 -0.44695368 65280
0.085132331 0.28569385 -0.44676861 16711680
0.10502662 0.37250161 -0.44747829 16711680
-0.074977964 0.37291914 -0.4471404 16711680
0.11456579 0.37104911 -0.44788605 16711680
0.095015064 0.37182307 -0.44795448 16711680
-0.065276042 0.36424905 -0.44724861 16711680
0.13151819 0.36169559 -0.44729692 16711680
0.027099658 0.36088556 -0.44743246 16711680
0.091953576 0.35753381 -0.44763231 16711680
0.079605445 0.35734093 -0.44724661 16711680
-0.072702825 0.35734093 -0.44724661 16711680
-0.088846102 0.35734093 -0.44724661 16711680
0.13537662 0.35055932 -0.44795093 16711680
0.024522688 0.35025457 -0.44798633 16711680
-0.075051084 0.35080197 -0.44768658 16711680
0.095335491 0.34401691 -0.44792452 65280
0.053675402 0.34452438 -0.44753757 65280
0.073761314 0.34306151 -0.44786519 16711680
-0.014912404 0.34311673 -0.44747809 16711680
0.026569482 0.34276137 -0.44713941 16711680
-0.084884226 0.34272882 -0.44763175 16711680
0.094613329 0.3336333 -0.4472512 65280
0.035364293 0.32342809 -0.44773117 65280
0.12364839 0.29788879 -0.44748884 16711680
0.046837796 0.29768309 -0.44780427 16711680
0.0050470494 0.29729608 -0.44743663 16711680
0.085119858 0.29666758 -0.44715109 16711680
0.095495567 0.29123041 -0.44704032 65280
0.088140368 0.28567493 -0.447092 65280
0.064330757 0.28428155 -0.44739321 16711680
0.055096637 0.28458089 -0.44722131 16711680
0.094713442 0.27794597 -0.44764638 65280
0.065132052 0.37207678 -0.44849876 16711680
-0.064829379 0.37214488 -0.44899303 16711680
0.055646125 0.37000334 -0.44861844 16711680
-0.05559681 0.3648831 -0.44842544 16711680
-0.09313187 0.36431214 -0.44826341 16711680
0.085400283 0.35762677 -0.44820756 16711680
0.084815152 0.35507256 -0.44870004 65280
0.094841778 0.35457098 -0.44876847 65280
0.085163951 0.35029507 -0.44831353 16711680
-0.094861284 0.3501009 -0.4488056 16711680
0.10484554 0.34415314 -0.44810376 65280
0.085749038 0.34419915 -0.4484809 65280
0.11199231 0.34349662 -0.44876748 65280
-0.02509748 0.3436974 -0.4486753 16711680
-0.0063766465 0.34265631 -0.448661 16711680
-0.07738515 0.34288985 -0.4484975 16711680
0.092998967 0.33521998 -0.44879246 16711680
0.11497638 0.33497652 -0.44824919 16711680
0.10490417 0.33433539 -0.4481954 65280
0.084605783 0.33465937 -0.44832164 65280
0.10511039 0.32739553 -0.44817129 16711680
0.019530807 0.3255955 -0.44865876 65280
0.044740286 0.32423699 -0.44844195 65280
0.025405357 0.323825 -0.44828284 65280
0.12097889 0.31872687 -0.44823399 16711680
0.12556316 0.31545019 -0.44813395 16711680
0.093254879 0.3153185 -0.44845381 16711680
0.085059151 0.30506784 -0.44804406 16711680
0.07505919 0.30556223 -0.4481281 16711680
0.10471036 0.29945454 -0.44888636 65280
0.094661467 0.29923648 -0.44834128 65280
0.085346937 0.29949078 -0.44865578 65280
0.044678282 0.2926062 -0.44846708 16711680
0.0076806173 0.29291576 -0.44866714 16711680
0.08439143 0.29029763 -0.44824719 65280
0.10507252 0.2899515 -0.44847536 65280
0.044859584 0.28541183 -0.44864124 16711680
0.075266555 0.28495237 -0.44823506 16711680
-0.095417708 0.37210214 -0.44906265 16711680
0.084752917 0.37182906 -0.44931108 16711680
0.075112432 0.37180465 -0.44969049 16711680
0.12432618 0.3684209 -0.44917396 16711680
0.045996968 0.36773407 -0.44989786 16711680
-0.04849093 0.36503595 -0.44992244 16711680
-0.064464718 0.35774034 -0.44949761 16711680
0.094464555 0.35048077 -0.44919208 65280
0.083784483 0.34976354 -0.44927344 65280
-0.0050119273 0.34987202 -0.44901717 16711680
0.1322642 0.34329224 -0.44940367 16711680
0.08575651 0.34301507 -0.44910181 16711680
0.00041747838 0.34304908 -0.44984064 16711680
-0.033853561 0.34334081 -0.44931626 16711680
-0.094357595 0.34309319 -0.44910911 16711680
-0.095465586 0.34387964 -0.44952977 65280
-0.0046252012 0.33650517 -0.4499532 16711680
0.055022098 0.33554983 -0.44950709 65280
-0.085578918 0.33578849 -0.44984648 16711680
0.01615575 0.33390126 -0.44990537 65280
0.095577672 0.327041 -0.44965801 16711680
0.11502422 0.32683837 -0.4494324 16711680
-0.026347101 0.32651275 -0.44939083 65280
0.088127099 0.32428214 -0.44935691 65280
-0.015639681 0.3224332 -0.4498418 65280
-0.023881674 0.32266223 -0.44959342 65280
0.13363893 0.30507943 -0.44959489 16711680
0.044824857 0.30431849 -0.4497259 16711680
-0.0052780658 0.30422246 -0.44988286 16711680
0.011720743 0.30067378 -0.44996071 16711680
0.11422692 0.2988196 -0.44994655 65280
0.055444721 0.28328934 -0.44991773 65280
0.10406405 0.27840129 -0.44915527 65280
0.085721388 0.27844185 -0.44972041 65280
-0.055448078 0.37087786 -0.45012972 16711680
0.023324993 0.36110258 -0.45061362 16711680
-0.044926628 0.36005086 -0.45079479 16711680
-0.095513344 0.35870567 -0.45049322 16711680
0.1030976 0.3556321 -0.45069593 65280
0.10489544 0.35100633 -0.4500452 65280
-0.042837337 0.35107473 -0.45064729 16711680
-0.066397846 0.35116354 -0.4508934 16711680
0.058025699 0.34958068 -0.45001912 65280
0.07869368 0.3430362 -0.45071107 65280
-0.085405067 0.34265009 -0.45091638 65280
-0.10089295 0.34265009 -0.45091638 65280
0.12545271 0.33502144 -0.45021582 16711680
0.11458949 0.33549097 -0.45010781 65280
0.05518188 0.33399773 -0.4501681 16711680
-0.0044354573 0.32955584 -0.45099387 16711680
-0.08510647 0.32645062 -0.45007539 16711680
0.096315607 0.32487592 -0.45039177 65280
0.092356846 0.32278833 -0.45015129 65280
-0.0088968212 0.32135198 -0.4509151 65280
-0.080094561 0.32099074 -0.45057026 16711680
0.13482869 0.31496996 -0.45004064 16711680
-0.057084646 0.30750149 -0.45019338 16711680
0.10518926 0.3056896 -0.45055985 65280
0.09562888 0.30545944 -0.45030463 65280
0.08383698 0.30556077 -0.45070389 65280
0.11587283 0.3049002 -0.450728 65280
0.0045503639 0.30269891 -0.45027238 16711680
0.033462767 0.29914892 -0.45028257 16711680
0.035239648 0.29280433 -0.45000282 16711680
0.12512514 0.29192823 -0.45083183 16711680
0.11546102 0.2902106 -0.45093796 65280
0.034702171 0.28436646 -0.45029384 16711680
0.081704736 0.28244352 -0.45076391 65280
0.045078412 0.28278869 -0.45025474 65280
0.054558013 0.27785099 -0.45012367 65280
0.045532215 0.27757472 -0.45014369 65280
-0.10510555 0.37139261 -0.4519136 16711680
-0.048452847 0.36809346 -0.45120212 16711680
-0.034954291 0.3642821 -0.45178673 16711680
0.13641842 0.35923958 -0.45171678 16711680
0.075913899 0.3558026 -0.45104218 65280
0.14207454 0.34969327 -0.4512701 16711680
0.074357338 0.34810975 -0.45141116 65280
0.065304264 0.34786248 -0.45173138 65280
0.031191334 0.3477239 -0.45161632 65280
0.028995683 0.3477239 -0.45161632 65280
0.020525929 0.34382522 -0.45138592 16711680
-0.070978612 0.34382522 -0.45138592 16711680
0.061638787 0.34200656 -0.45125857 65280
0.014881779 0.33940941 -0.45169359 16711680
0.0046311989 0.33823532 -0.45124504 16711680
0.02408104 0.33753997 -0.45118997 16711680
-0.084746577 0.33627334 -0.45146242 65280
-0.094632626 0.33661944 -0.45125687 65280
-0.095417559 0.33639637 -0.45138454 16711680
0.085030943 0.33588776 -0.45195052 16711680
0.075299636 0.3354708 -0.45186335 16711680
0.065607116 0.33433834 -0.45128915 16711680
0.033646036 0.33409646 -0.4517501 16711680
0.045239802 0.33346426 -0.45172846 16711680
-0.035427798 0.33303919 -0.45149642 65280
-0.045197852 0.33265954 -0.45194083 65280
-0.014244493 0.33011222 -0.45188099 16711680
-0.013182342 0.3274816 -0.4511869 65280
-0.093702003 0.32734671 -0.45159024 16711680
0.12351811 0.32687759 -0.45167121 16711680
0.082764328 0.3245424 -0.45155463 65280
0.12695336 0.32326931 -0.4517819 16711680
0.091168225 0.32205525 -0.45162162 16711680
0.04120943 0.31945592 -0.45192325 65280
0.034848794 0.31858978 -0.45172304 65280
0.026220359 0.31873176 -0.45179343 65280
0.085533738 0.31417829 -0.45150402 16711680
-0.055387106 0.31416559 -0.45195699 16711680
0.094913378 0.31396645 -0.45191225 65280
-0.065067559 0.30722061 -0.45169929 16711680
0.035020668 0.30420882 -0.45137092 16711680
-0.014049701 0.30382451 -0.4510698 16711680
0.077898145 0.29816487 -0.45123869 65280
0.12160847 0.29777956 -0.45167011 65280
0.015298638 0.29207897 -0.45111835 16711680
0.025198575 0.29157001 -0.4517 16711680
0.027337115 0.28395671 -0.45183152 16711680
0.10790367 0.2813791 -0.45132983 65280
0.065690331 0.28095651 -0.45174098 65280
0.062487558 0.2769039 -0.45133087 65280
0.10135068 0.27315593 -0.45134172 65280
0.094221517 0.27177313 -0.45109689 65280
0.044898491 0.2687161 -0.45192242 65280
-0.10736465 0.3662796 -0.4523769 16711680
-0.024796326 0.36271539 -0.45249528 16711680
-0.014403943 0.36027598 -0.45277119 16711680
-0.055195935 0.35782063 -0.45215341 16711680
0.14065865 0.3551614 -0.45288312 16711680
0.056386314 0.35579681 -0.45208067 65280
0.015625287 0.35080564 -0.45273781 16711680
0.0033676438 0.34941825 -0.45266086 16711680
-0.094456702 0.34967458 -0.45295751 65280
-0.10424885 0.3492862 -0.45230746 16711680
-0.084833942 0.34646681 -0.4528946 65280
0.014081445 0.34553304 -0.45272958 16711680
0.0068527013 0.34578323 -0.45266554 16711680
-0.1077864 0.3449477 -0.45276678 16711680
0.13899571 0.34309933 -0.45269877 16711680
0.018670455 0.34261835 -0.4520658 65280
0.071971089 0.34132898 -0.45275137 65280
0.075515248 0.336339 -0.45217264 65280
-0.075265191 0.33622804 -0.45228571 16711680
0.12310171 0.33562744 -0.45242891 65280
-0.074888565 0.33587268 -0.45253024 65280
-0.015179522 0.33480728 -0.45221835 16711680
-0.025738753 0.33250967 -0.45240706 65280
0.088842988 0.32868505 -0.45277384 16711680
0.13621502 0.32768884 -0.45299914 16711680
-0.054610621 0.32766548 -0.45298675 16711680
-0.078676753 0.32786819 -0.45216784 16711680
0.14083867 0.32663909 -0.45244098 16711680
-0.0042780442 0.32561737 -0.45269921 65280
-0.034859706 0.32501635 -0.45236444 65280
-0.085134625 0.32506266 -0.45226914 65280
-0.095358551 0.32530621 -0.45207861 65280
0.1350123 0.32417032 -0.45226085 16711680
0.10474943 0.3249436 -0.45226431 65280
0.015029971 0.32491019 -0.45249811 65280
-0.055536166 0.32404229 -0.45265746 16711680
0.047662556 0.32222867 -0.45214784 65280
-0.096211031 0.32228741 -0.45264983 16711680
-0.0084169181 0.31788462 -0.45256999 65280
-0.014617468 0.31745604 -0.45278421 65280
-0.024073839 0.31776544 -0.45252654 65280
-0.084516488 0.31438082 -0.45233119 16711680
0.085695304 0.313714 -0.45206392 65280
0.075314075 0.31389692 -0.45240724 16711680
0.064870119 0.31361347 -0.45231053 16711680
-0.064937174 0.31399566 -0.45223054 16711680
0.11497512 0.31230402 -0.45260149 65280
0.10495391 0.31288159 -0.45270756 65280
0.05537599 0.31257474 -0.45297176 16711680
-0.046786726 0.30614412 -0.45234668 16711680
0.027399745 0.30515155 -0.45234156 16711680
0.12538303 0.30337739 -0.45287597 65280
-0.019206703 0.30334142 -0.45251179 16711680
0.024103086 0.30233169 -0.45219031 16711680
0.015386093 0.30298492 -0.45256689 16711680
0.075263925 0.29085127 -0.45243287 65280
0.065726072 0.29041538 -0.45277041 65280
0.055168197 0.28936282 -0.45220953 65280
0.034560863 0.28112447 -0.45247006 65280
0.065483406 0.27618843 -0.45248863 16711680
0.079252519 0.27533859 -0.45272949 65280
0.035715889 0.27565089 -0.45213872 65280
0.026603363 0.27493259 -0.45294535 65280
0.085142113 0.27141067 -0.45275879 65280
0.0545155 0.26885292 -0.45215303 65280
0.035433665 0.26851702 -0.45270953 65280
-0.085089952 0.37743926 -0.4537116 16711680
-0.11477683 0.37264168 -0.45335293 16711680
-0.11561681 0.36713964 -0.45391956 16711680
-0.10473919 0.35898894 -0.45318478 16711680
0.065362617 0.35677204 -0.45378947 65280
0.11551549 0.34876132 -0.45340064 65280
-0.075128511 0.34548983 -0.45345131 65280
0.067955427 0.34103766 -0.45339173 65280
-0.064876147 0.34114733 -0.45350865 65280
-0.072883479 0.34131727 -0.4531351 65280
-0.035426334 0.33803394 -0.45342779 16711680
-0.024432492 0.33700186 -0.4537257 16711680
0.0646815 0.33643708 -0.45321676 65280
-0.064596035 0.33612287 -0.45378011 65280
-0.10474665 0.33663592 -0.45330894 16711680
0.1350331 0.33576182 -0.4533942 16711680
-0.056021955 0.33503836 -0.45395678 65280
-0.10333169 0.33579114 -0.45318452 65280
0.073993549 0.32920516 -0.45380539 16711680
0.0013358332 0.32920516 -0.45380539 16711680
0.055093016 0.32548696 -0.45319402 65280
-0.075196952 0.32577932 -0.45327249 65280
0.14388362 0.32415622 -0.45367956 16711680
-0.065290034 0.32423839 -0.45377457 16711680
-0.074112318 0.32348603 -0.45386416 16711680
0.10497686 0.31875807 -0.45370999 65280
0.08173047 0.31854254 -0.45391899 65280
0.14337513 0.31439558 -0.45312271 16711680
-0.086877495 0.31470484 -0.45395112 65280
-0.094457455 0.31489414 -0.45314398 65280
-0.09540683 0.31425062 -0.45374644 16711680
-0.074520558 0.31343818 -0.45313406 16711680
0.12402622 0.31198189 -0.45391521 65280
-0.075031415 0.30687734 -0.4532592 16711680
-0.081761546 0.30668145 -0.45315501 16711680
0.0071872696 0.3055574 -0.45397314 16711680
-0.074704975 0.30452231 -0.45313966 16711680
0.074376263 0.30393568 -0.45338011 65280
-0.042002812 0.30271336 -0.45337698 16711680
0.1377863 0.30031791 -0.45354676 16711680
0.070808843 0.29681256 -0.4537698 65280
0.13357385 0.29402298 -0.45367277 16711680
0.12467555 0.29144317 -0.45319873 65280
0.045307148 0.28792536 -0.45330423 65280
0.11407486 0.2816793 -0.45377508 65280
0.074699037 0.28002074 -0.45320737 65280
0.0920766 0.27862781 -0.45352826 16711680
-0.074880041 0.37717429 -0.4543944 16711680
-0.094878778 0.37778658 -0.45459419 16711680
-0.066921994 0.37591785 -0.45485902 16711680
-0.12100092 0.37389177 -0.4549143 16711680
0.084618621 0.36426619 -0.45499578 65280
-0.0051825196 0.35863155 -0.45432562 16711680
-0.11434753 0.35882619 -0.45475087 16711680
0.015640426 0.3578876 -0.45444834 16711680
-0.059523199 0.35186982 -0.45453072 16711680
-0.11125771 0.35092476 -0.45402819 16711680
-0.10443312 0.34732217 -0.45409507 65280
0.0087807076 0.33400798 -0.4543789 65280
0.11484289 0.32624993 -0.45435992 65280
0.074898005 0.32659239 -0.45455438 65280
0.005475108 0.32651871 -0.45445496 65280
-0.045160178 0.32663774 -0.45462283 65280
-0.10518674 0.32622206 -0.45413947 65280
0.084695607 0.32345575 -0.45446616 16711680
0.11473424 0.31872186 -0.45449165 65280
-0.10636526 0.31752872 -0.45483556 65280
-0.082145795 0.31598964 -0.45496193 65280
-0.046373762 0.31304264 -0.45456454 16711680
-0.10347132 0.31314436 -0.45457804 65280
0.076429285 0.31238461 -0.45448396 65280
0.045053426 0.31077093 -0.45468223 16711680
0.036238659 0.3095361 -0.4544116 16711680
-0.0024790987 0.30981588 -0.45482162 16711680
-0.085938841 0.30409291 -0.45411935 16711680
-0.095052458 0.30413297 -0.454521 65280
-0.024903575 0.3026289 -0.45416483 16711680
-0.034548692 0.30160275 -0.45493349 16711680
0.12866217 0.2970874 -0.45418999 65280
-0.094835855 0.28997254 -0.4549318 65280
0.019849572 0.285375 -0.45428449 16711680
0.024778798 0.28042352 -0.45429471 65280
0.02393939 0.28010792 -0.45473057 16711680
0.044497695 0.27818081 -0.45418054 16711680
0.085784063 0.27773952 -0.45437741 16711680
0.07540901 0.27158681 -0.45468092 65280
0.06423226 0.26964024 -0.45444188 65280
0.027125224 0.26963362 -0.4546617 65280
-0.11507252 0.37752557 -0.45525241 16711680
-0.10565601 0.37699202 -0.45522419 16711680
-0.12100092 0.37512892 -0.4555721 16711680
0.088729888 0.3734538 -0.45581397 16711680
0.13225342 0.36530226 -0.45578349 16711680
0.094100982 0.36391959 -0.45521152 65280
0.0033862256 0.35560954 -0.45590925 16711680
-0.066158727 0.34634089 -0.45542577 65280
-0.11548455 0.34617937 -0.45572385 16711680
-0.064021841 0.34433901 -0.45515117 16711680
-0.10702096 0.34048581 -0.45506042 65280
0.12725271 0.33901474 -0.45568085 65280
0.1424461 0.33761069 -0.45548686 16711680
-0.066686101 0.3375822 -0.45583254 16711680
-0.11425146 0.3364673 -0.4554359 16711680
-0.019262662 0.33428422 -0.45536461 65280
0.13923906 0.33041671 -0.45558211 16711680
-0.072471574 0.33005953 -0.45595852 16711680
0.080766276 0.32998821 -0.4553543 16711680
0.063297212 0.32998821 -0.4553543 16711680
-0.10629813 0.32998821 -0.4553543 16711680
0.064923584 0.32732511 -0.45557463 65280
-0.065474503 0.32736784 -0.45578593 65280
0.074878931 0.32323211 -0.45515972 16711680
-0.045472208 0.32318848 -0.45599225 16711680
0.074111469 0.31781512 -0.45573196 65280
-0.10397026 0.3130739 -0.45537606 16711680
0.13211648 0.31187171 -0.45595583 65280
0.069125772 0.31187171 -0.45595583 65280
-0.11197254 0.31187171 -0.45595583 65280
-0.10718752 0.30943003 -0.45595506 16711680
-0.094590753 0.30816048 -0.45552716 16711680
-0.087317176 0.30784756 -0.45519078 16711680
0.13220946 0.30525166 -0.4554489 65280
-0.10514218 0.30468455 -0.4556087 65280
0.064020656 0.29693538 -0.45502579 65280
-0.094967723 0.29585522 -0.45510244 65280
-0.085828558 0.28923592 -0.45519349 65280
0.036838897 0.2880131 -0.45561713 65280
0.0079868734 0.28291979 -0.45524412 16711680
0.016251203 0.28128096 -0.45559245 16711680
-0.095091209 0.28152466 -0.45575023 65280
0.1177793 0.27720559 -0.45560357 16711680
0.05334409 0.27519649 -0.45585665 16711680
0.068197802 0.2714501 -0.45594096 16711680
0.10389009 0.37334424 -0.45603892 16711680
0.095240563 0.37314087 -0.45645654 16711680
0.062314231 0.37290621 -0.45693856 16711680
-0.053156007 0.37253612 -0.45678216 16711680
-0.044593651 0.36894876 -0.45678806 16711680
0.035006333 0.36594537 -0.45671618 16711680
0.10579598 0.36211321 -0.45661238 65280
-0.11823258 0.35311639 -0.45697325 16711680
-0.049532235 0.35266206 -0.45608452 16711680
-0.052391753 0.35266206 -0.45608452 16711680
0.1452353 0.34481192 -0.4561981 16711680
-0.046654813 0.34465876 -0.45668826 16711680
-0.054735351 0.34105542 -0.45649436 65280
-0.045189638 0.33783266 -0.45623541 16711680
-0.025688363 0.33084571 -0.45660964 16711680
-0.1163993 0.3305839 -0.45665264 16711680
0.043123741 0.32936317 -0.45643771 16711680
0.035281595 0.32957152 -0.45607659 16711680
-0.055563848 0.32829675 -0.4569301 65280
0.12370053 0.32792598 -0.45608214 65280
0.051396947 0.32649422 -0.45651668 16711680
-0.11469553 0.3269417 -0.45604518 65280
-0.10506123 0.32288587 -0.45622855 16711680
-0.0044420399 0.32146481 -0.45631525 16711680
0.12526041 0.31847477 -0.45672354 65280
-0.11547866 0.3166523 -0.45627508 65280
-0.0045107575 0.31518608 -0.45688343 65280
-0.075011827 0.31597036 -0.45672598 65280
-0.085337013 0.30531248 -0.45695192 65280
0.065644376 0.30472422 -0.45633224 65280
-0.095542237 0.30099329 -0.45657212 16711680
-0.10486121 0.30098912 -0.45615017 16711680
-0.10217116 0.28955489 -0.45630747 65280
-0.079011299 0.28881687 -0.45688862 65280
0.12158419 0.28571427 -0.45655632 65280
-0.085110866 0.2819891 -0.45624998 65280
0.073976308 0.27613923 -0.45662215 16711680
0.035117131 0.27635229 -0.45684865 16711680
0.021758897 0.27060205 -0.45672026 65280
0.044832811 0.26293105 -0.456835 65280
0.035406988 0.26245868 -0.45684078 65280
0.11594726 0.37140113 -0.45778045 16711680
0.12496132 0.36778879 -0.4577677 16711680
0.045024227 0.36766475 -0.45743397 16711680
0.025124948 0.36512497 -0.45746779 16711680
-0.03588815 0.36594164 -0.45790723 16711680
0.074397564 0.36306608 -0.45761585 65280
-0.12233184 0.36021632 -0.45771024 16711680
0.12303528 0.34692156 -0.45713952 65280
0.012912174 0.3407883 -0.45734259 65280
-0.034906413 0.34094098 -0.45786548 65280
-0.044712037 0.34051999 -0.45781484 65280
-0.12230131 0.33735096 -0.45775911 16711680
-0.050977733 0.33690351 -0.45789868 16711680
-0.11797269 0.33260018 -0.45795888 65280
-0.045142405 0.33129373 -0.45746422 16711680
-0.064629458 0.33162314 -0.4575181 16711680
-0.12428986 0.32622769 -0.45785502 65280
-0.015333857 0.32462505 -0.45759919 16711680
-0.024948388 0.32471642 -0.45796797 16711680
0.001693394 0.32333219 -0.45733652 16711680
-0.11484185 0.32275355 -0.45778269 16711680
0.064372204 0.31683281 -0.45739529 65280
-0.034887202 0.3163721 -0.45746922 65280
-0.025131324 0.31421039 -0.45708033 65280
-0.014669864 0.31349784 -0.45707315 65280
-0.041414998 0.3108575 -0.45703083 16711680
-0.11483659 0.30596998 -0.45703003 65280
0.054992605 0.29764709 -0.45761794 65280
-0.084315799 0.2960259 -0.45700243 65280
-0.10540231 0.29472283 -0.45709082 65280
-0.10519797 0.29390851 -0.45768929 16711680
0.12902243 0.28692737 -0.45737496 16711680
-0.10496964 0.28229082 -0.45764038 65280
0.074278533 0.26967496 -0.4576014 65280
0.062009137 0.26474458 -0.45790938 65280
0.054736193 0.26386404 -0.4572126 65280
0.027578801 0.26373345 -0.45767304 65280
0.054698247 0.37037116 -0.45850819 16711680
-0.12493317 0.36756039 -0.45820171 16711680
-0.026365459 0.36356676 -0.45872766 16711680
0.065785855 0.36274791 -0.45835134 65280
-0.095088325 0.3558023 -0.45832306 65280
-0.058082767 0.34685901 -0.4588716 65280
-0.055415113 0.34545606 -0.45890334 16711680
-0.025520872 0.33936134 -0.45889413 65280
-0.11490589 0.33931202 -0.45810246 65280
-0.12479392 0.33866611 -0.45893773 65280
-0.055642262 0.33322483 -0.45810953 16711680
0.14525472 0.33155912 -0.45864344 16711680
0.015453283 0.3317332 -0.45816973 16711680
-0.12591498 0.33197474 -0.45885769 65280
-0.034900784 0.33001471 -0.45822695 16711680
0.0066808127 0.32926258 -0.45836619 16711680
0.034196775 0.32619131 -0.45899829 16711680
0.045969535 0.32551265 -0.45881167 16711680
0.067197576 0.32194296 -0.45809859 16711680
0.035227697 0.31828892 -0.45859718 65280
-0.065344058 0.31740329 -0.45895502 65280
-0.12527753 0.31715789 -0.45803463 65280
-0.11164038 0.31634593 -0.45829374 16711680
0.061675608 0.31007135 -0.45880079 65280
-0.12565166 0.31029412 -0.45806879 65280
-0.0045494363 0.30919927 -0.45864648 16711680
-0.080623768 0.30927396 -0.45846966 65280
0.14747651 0.30733615 -0.45825997 16711680
-0.01587788 0.30746305 -0.45879298 16711680
-0.12423337 0.30511576 -0.45817065 65280
0.14343852 0.30232203 -0.45805722 16711680
-0.11348318 0.30086309 -0.45885223 16711680
0.13238071 0.2981877 -0.4588902 65280
-0.10802471 0.28810936 -0.45839736 65280
-0.07795506 0.28280491 -0.45871669 65280
0.016761899 0.28026137 -0.45804 65280
0.10399605 0.27495196 -0.45892149 65280
-0.09488745 0.27158526 -0.4583672 65280
-0.10495336 0.27185977 -0.45861116 65280
0.068806536 0.26691028 -0.45834345 65280
0.059008576 0.36301705 -0.45934078 65280
0.017454762 0.36299312 -0.45963612 16711680
-0.019562747 0.3619507 -0.45989078 16711680
0.011350349 0.35890919 -0.45956796 16711680
0.0062600262 0.35806707 -0.45930323 16711680
-0.10657229 0.35529512 -0.45972532 65280
-0.11224291 0.34716493 -0.45927525 65280
-0.12475301 0.34437793 -0.45955622 16711680
0.0052531343 0.33887541 -0.45997047 65280
-0.12564661 0.33204377 -0.45929503 16711680
0.12834492 0.33011654 -0.45946828 65280
0.024984743 0.32916227 -0.45944545 16711680
-0.1326402 0.32550985 -0.45965251 65280
0.045215096 0.31906426 -0.45993713 65280
0.054715108 0.3180314 -0.45986906 65280
0.015326663 0.31804395 -0.45956784 65280
0.024572918 0.31774417 -0.45965654 65280
0.0053376681 0.31719229 -0.45939752 65280
-0.045141973 0.31757867 -0.4592084 65280
-0.11915746 0.31713817 -0.45984757 16711680
0.060875136 0.31582984 -0.45915192 16711680
0.034511369 0.311481 -0.45987061 16711680
-0.025129134 0.31026337 -0.45939171 16711680
-0.11509049 0.31045708 -0.45903841 16711680
0.0042473264 0.309264 -0.45951867 16711680
0.025674168 0.30866995 -0.45942906 16711680
0.015179548 0.30663797 -0.45943186 16711680
-0.1320145 0.30410051 -0.45947006 65280
0.058024731 0.30280051 -0.45945778 65280
0.045550644 0.29515928 -0.45990717 65280
-0.11537246 0.29566622 -0.45976472 65280
-0.10477719 0.28716546 -0.45973334 16711680
-0.11472801 0.28071979 -0.45977825 65280
-0.085199289 0.27249923 -0.45964786 65280
-0.11489157 0.27244481 -0.45948258 65280
0.084751651 0.2690191 -0.45921773 65280
-0.10533322 0.26532394 -0.45918697 65280
-0.11567914 0.26517177 -0.45967239 65280
-0.10489962 0.26011297 -0.45948932 65280
-0.11435131 0.25988969 -0.45987597 65280
0.084927231 0.37442136 -0.46085873 16711680
0.11419711 0.35994989 -0.46021655 65280
-0.076070227 0.35517976 -0.46048778 65280
-0.1256645 0.35448018 -0.4603157 16711680
0.1234831 0.35171616 -0.46081924 65280
0.13188413 0.33912885 -0.46049014 65280
-0.054376245 0.33955696 -0.4604421 16711680
-0.12915233 0.33925283 -0.46065789 16711680
-0.015320778 0.3386285 -0.460159 65280
-0.034701966 0.32404611 -0.46006331 16711680
-0.12298127 0.32331884 -0.4600901 16711680
-0.055409715 0.31843248 -0.46044156 65280
-0.13497768 0.31817296 -0.46016404 65280
-0.040624723 0.3177923 -0.46019539 16711680
0.13387117 0.31661898 -0.46034041 65280
0.054215189 0.31455627 -0.46022514 16711680
-0.034591593 0.30992955 -0.4602907 16711680
0.13633814 0.30826914 -0.46081614 65280
-0.07476756 0.30726612 -0.46051183 65280
-0.13608423 0.30788291 -0.46078685 65280
-0.078329772 0.30302349 -0.46066052 65280
-0.075543173 0.29547662 -0.46089813 65280
0.035036385 0.29260916 -0.46076164 65280
0.023248283 0.28896886 -0.4602055 65280
0.13579737 0.28757182 -0.46030635 16711680
-0.11549291 0.28704175 -0.46081072 65280
-0.097579032 0.28674886 -0.46062395 16711680
-0.10424513 0.27926618 -0.46066314 16711680
0.08251442 0.27407676 -0.46016905 16711680
0.094622254 0.27151573 -0.46020925 65280
-0.097874142 0.25952026 -0.4606117 65280
-0.10492322 0.25086084 -0.46064791 65280
0.074932531 0.37443817 -0.46172675 16711680
0.10454002 0.37312743 -0.46121621 16711680
0.094830155 0.37344325 -0.46193752 16711680
-0.12917036 0.36176908 -0.46130428 16711680
0.13988388 0.35932824 -0.46189415 16711680
-0.094277978 0.35935014 -0.46185681 65280
-0.084178559 0.35604265 -0.46109295 65280
0.14371917 0.35417932 -0.46170464 16711680
-0.063742496 0.35282129 -0.4616878 65280
-0.11922838 0.34611177 -0.46153408 65280
0.14918672 0.34219912 -0.46184692 16711680
-0.13391018 0.33930039 -0.46150631 65280
-0.0047485479 0.33881193 -0.46153229 65280
-0.13533176 0.33105391 -0.46115232 65280
0.062510163 0.31869966 -0.46156779 16711680
-0.024918685 0.31768996 -0.4611927 16711680
0.045248169 0.3124066 -0.46196499 16711680
-0.12024942 0.3018823 -0.46192902 16711680
-0.12497024 0.29653382 -0.46111789 65280
-0.11705534 0.29552978 -0.46164697 16711680
-0.11448734 0.28726506 -0.46163183 16711680
-0.07306429 0.28559819 -0.46180895 65280
-0.096579887 0.28004783 -0.46101585 16711680
-0.11145872 0.28061759 -0.4613817 16711680
-0.12225667 0.28052229 -0.46107247 65280
0.11052988 0.27837136 -0.46131006 65280
-0.096277311 0.27706963 -0.46119413 16711680
0.015028942 0.27514881 -0.46130538 16711680
0.015139523 0.2733126 -0.46119195 65280
-0.10547185 0.27359608 -0.46183878 16711680
-0.12463921 0.27355129 -0.46179226 65280
0.044576023 0.27113026 -0.46175739 16711680
-0.09391436 0.26299894 -0.46114141 65280
-0.12133084 0.25912553 -0.46109843 65280
-0.11512805 0.25130799 -0.46158999 65280
-0.064920291 0.37613499 -0.46220827 16711680
-0.12465653 0.37630451 -0.46230707 16711680
0.06501092 0.37396306 -0.46233484 16711680
-0.055557474 0.37395686 -0.46207455 16711680
0.094531432 0.37185118 -0.46224794 65280
-0.13243268 0.3686505 -0.46242356 16711680
-0.10325203 0.36096609 -0.4623189 65280
-0.055200048 0.34942901 -0.46288478 65280
-0.051732458 0.34702262 -0.46274865 65280
-0.12464897 0.346719 -0.46234375 65280
-0.13182177 0.34646973 -0.46260762 16711680
-0.14164376 0.33806059 -0.46298349 65280
-0.12618056 0.31856179 -0.46245781 16711680
-0.14281973 0.3181107 -0.46283165 65280
-0.034713879 0.31778353 -0.46216038 16711680
0.15153323 0.31126916 -0.4623898 16711680
-0.12447137 0.30956185 -0.46261463 16711680
-0.065222748 0.30790603 -0.46284908 65280
-0.072496548 0.30104277 -0.46284628 65280
-0.13391504 0.29711294 -0.46272603 65280
0.14577863 0.2965439 -0.46286577 16711680
0.026108317 0.29317313 -0.46280932 65280
0.14227538 0.28968406 -0.46280473 16711680
0.12388755 0.28733128 -0.46272355 65280
-0.12540545 0.28649414 -0.46254334 65280
0.076791435 0.27091917 -0.46273726 16711680
-0.098500594 0.26768303 -0.46224353 16711680
-0.12556812 0.26319861 -0.46210521 65280
-0.095081903 0.25161195 -0.46219659 65280
-0.095077991 0.37907344 -0.46308601 16711680
-0.085080512 0.37807578 -0.46323743 16711680
-0.10470334 0.37851596 -0.46319762 16711680
-0.11487731 0.37896982 -0.46358612 16711680
-0.074978828 0.37787938 -0.46365562 16711680
0.11171545 0.37214649 -0.46304691 16711680
0.057985064 0.37169945 -0.46375301 16711680
-0.047296073 0.37193972 -0.46309876 16711680
0.075966626 0.36930221 -0.4630774 65280
-0.13448946 0.35382554 -0.46395698 16711680
-0.11490114 0.35174257 -0.46315759 65280
0.010864221 0.34600922 -0.46385369 65280
0.13155015 0.3326641 -0.4630214 65280
-0.13363808 0.33195493 -0.46336973 16711680
0.054795835 0.31642163 -0.46363923 16711680
-0.0083052926 0.31690741 -0.46312255 16711680
-0.0053776912 0.31013131 -0.46384317 65280
0.055150796 0.30927444 -0.46342039 65280
-0.014764449 0.30852136 -0.46379331 65280
-0.024869559 0.30835065 -0.46353716 65280
-0.034960903 0.30815098 -0.46322751 65280
-0.045098595 0.30837202 -0.46354887 65280
-0.055234432 0.3084864 -0.46371925 65280
-0.13884814 0.30003548 -0.46354359 65280
0.014747937 0.28727904 -0.4634183 65280
0.1177098 0.28262258 -0.46357986 65280
0.010962962 0.27940619 -0.46302494 65280
-0.12879474 0.27909535 -0.4631902 65280
-0.072693534 0.27846327 -0.4636395 65280
-0.07595554 0.27392974 -0.46337616 65280
0.024678823 0.27125558 -0.4631184 16711680
0.034899194 0.26977032 -0.46373084 16711680
-0.10390504 0.26749176 -0.46323675 16711680
0.024182519 0.26268744 -0.46359009 65280
-0.090130545 0.25714797 -0.46353415 65280
-0.12245748 0.25236088 -0.46398422 65280
-0.086210229 0.25122145 -0.46361125 65280
-0.13311771 0.37340379 -0.46490183 16711680
0.081997663 0.37251759 -0.4641048 65280
0.050550852 0.36907327 -0.46481052 16711680
0.1340284 0.36336869 -0.46436605 16711680
-0.10250479 0.36318001 -0.46435067 65280
-0.13584746 0.36373967 -0.46423975 16711680
-0.02342576 0.34454155 -0.46435088 65280
-0.13552859 0.34110287 -0.46418995 16711680
-0.14458168 0.33128911 -0.46419859 65280
-0.14643541 0.32198256 -0.46476674 65280
0.15184164 0.31909519 -0.46444759 16711680
-0.01523729 0.31851777 -0.46420535 16711680
0.0050467094 0.31286317 -0.46427688 65280
-0.14479409 0.30923709 -0.46484908 65280
-0.064334445 0.29958409 -0.46453661 65280
-0.065427884 0.29473183 -0.46446517 65280
-0.065097041 0.28724587 -0.46490407 65280
-0.13503757 0.28667372 -0.46436566 65280
-0.11812057 0.28102624 -0.46443048 16711680
-0.11470769 0.27464893 -0.46443731 16711680
-0.13189247 0.27237269 -0.46462545 65280
0.072439283 0.26735175 -0.46452129 16711680
0.054588955 0.26729441 -0.46460405 16711680
0.074433632 0.2668817 -0.46477658 65280
0.065167241 0.26438668 -0.46440423 65280
0.054881293 0.26332903 -0.46489504 65280
-0.085093744 0.26389548 -0.46427283 65280
0.034715369 0.26162508 -0.46471897 65280
-0.10479896 0.24106748 -0.46426961 65280
0.10511038 0.37336713 -0.46516326 65280
-0.094109215 0.36331356 -0.46597859 65280
-0.12502679 0.35116836 -0.46580264 65280
-0.037806887 0.34914786 -0.46558261 65280
-0.044275444 0.34894544 -0.46531269 65280
-0.13867949 0.34882474 -0.46582296 16711680
-0.13543463 0.34652936 -0.46537042 65280
0.15129396 0.33250666 -0.46575397 16711680
0.023756269 0.32475817 -0.46540928 16711680
0.13407925 0.32385671 -0.46572244 65280
0.036183152 0.32017776 -0.46520123 16711680
0.04477739 0.31807545 -0.46577033 16711680
0.004958123 0.31713605 -0.465671 16711680
0.014418392 0.31436145 -0.46558014 65280
-0.13157639 0.31080103 -0.46576506 16711680
-0.12752233 0.30276713 -0.46534413 16711680
0.15054764 0.29975373 -0.46532741 16711680
-0.044903576 0.29886955 -0.46537283 65280
-0.054909736 0.29843438 -0.46539265 65280
-0.12478106 0.295151 -0.46572861 16711680
-0.044329099 0.29417524 -0.46536523 65280
-0.14060467 0.29417524 -0.46536523 65280
-0.12251942 0.28852129 -0.46530107 16711680
-0.064592868 0.27680007 -0.46551505 65280
0.0072618159 0.27243316 -0.46525154 65280
-0.067610875 0.27240795 -0.46561339 65280
0.084386386 0.2688396 -0.46545154 65280
0.015061827 0.26486191 -0.46592745 65280
0.045141879 0.26236278 -0.46552593 65280
-0.082766876 0.25532681 -0.46523863 65280
-0.1271946 0.25424477 -0.46578559 65280
-0.11479304 0.24221291 -0.46543491 65280
0.044124465 0.36744726 -0.46604928 16711680
-0.034138903 0.36671892 -0.46675652 16711680
0.014606182 0.36399364 -0.46601412 16711680
0.0051890425 0.36354971 -0.46631142 16711680
-0.0046564825 0.36304709 -0.46670282 16711680
-0.01501577 0.36225581 -0.46687815 16711680
-0.14236212 0.3554638 -0.46663478 16711680
0.0041673672 0.34512964 -0.46613353 65280
-0.0048125205 0.34440434 -0.46664861 65280
0.15243398 0.33994728 -0.46663618 16711680
-0.13688926 0.32628435 -0.46640947 16711680
0.015914824 0.32530084 -0.46645284 16711680
0.028375175 0.32114208 -0.46650672 16711680
-0.13491826 0.31738678 -0.4668695 16711680
-0.14525247 0.29941159 -0.46672291 65280
-0.040465754 0.29344475 -0.46688622 65280
-0.053732239 0.29344475 -0.46688622 65280
-0.04462653 0.28806975 -0.46651158 65280
-0.05488766 0.28786105 -0.4669874 65280
-0.14446965 0.28777492 -0.46674806 65280
-0.13586278 0.27717024 -0.46610141 65280
0.050333437 0.26591805 -0.46659046 16711680
-0.08642929 0.24679618 -0.46625033 65280
-0.096116841 0.24366492 -0.46619925 65280
0.098191559 0.37748727 -0.46788031 65280
0.12507813 0.36679059 -0.46715629 16711680
0.035359014 0.36628383 -0.46726444 16711680
0.024407294 0.36577034 -0.46727565 16711680
-0.024818989 0.36397502 -0.46765298 16711680
-0.066342548 0.36009842 -0.46768802 65280
0.14105186 0.35874948 -0.46781549 16711680
-0.014304698 0.34541658 -0.46718901 65280
-0.14452611 0.3430908 -0.4672043 65280
-0.14863451 0.33688173 -0.46719688 65280
0.027898511 0.31763804 -0.46761325 65280
-0.14952962 0.31610528 -0.46729568 65280
0.14012443 0.31481361 -0.46798247 65280
0.0079890415 0.30674323 -0.46791127 16711680
0.15426026 0.3035028 -0.46788722 16711680
0.045395378 0.30225432 -0.46701545 65280
-0.14788298 0.29277796 -0.4676182 65280
0.0063950988 0.2851851 -0.46741387 65280
-0.035812385 0.28572175 -0.46753523 65280
-0.12491982 0.28249568 -0.46792188 16711680
0.13717534 0.28053787 -0.46700218 16711680
0.0046460875 0.27816546 -0.46711382 65280
-0.035269123 0.27715424 -0.46733123 65280
-0.0454042 0.27715984 -0.46750137 65280
-0.055386085 0.27716517 -0.46734223 65280
-0.024965417 0.27656966 -0.46716091 65280
-0.12207702 0.27553549 -0.46785334 16711680
0.0053058509 0.26577243 -0.46752378 65280
-0.075316057 0.26594728 -0.4676224 65280
-0.13425086 0.26495948 -0.46703404 65280
-0.12308712 0.24484934 -0.46743083 65280
-0.14485744 0.36270946 -0.46819648 16711680
-0.13620931 0.35157672 -0.46882147 65280
-0.14563654 0.3501054 -0.46824935 16711680
-0.14426771 0.34085095 -0.4687396 16711680
-0.15247299 0.33027023 -0.46806958 65280
0.15271285 0.3285839 -0.46819845 16711680
0.043618713 0.31852514 -0.46827409 65280
0.051115837 0.3134284 -0.46853018 65280
0.050004471 0.31200022 -0.46844137 16711680
-0.13921757 0.31266585 -0.4687953 16711680
0.030542422 0.31015289 -0.46859166 16711680
-0.1509296 0.30883664 -0.46844235 65280
0.048616614 0.30676889 -0.46810713 65280
-0.13561013 0.30532545 -0.46836305 16711680
0.014500629 0.30440825 -0.46884048 16711680
0.024625385 0.30018783 -0.46883053 65280
-0.12855303 0.28898573 -0.46809629 16711680
-0.024577392 0.28458455 -0.46884677 65280
0.14274792 0.28230888 -0.46851012 16711680
0.1140039 0.28169551 -0.46888626 65280
0.09707617 0.27362055 -0.46893266 65280
-0.059333865 0.26647869 -0.46876603 65280
-0.065237716 0.26686671 -0.46850136 65280
-0.00151889 0.26505795 -0.46891743 65280
-0.10600249 0.26126862 -0.46850702 16711680
-0.095202178 0.37959218 -0.46927094 16711680
0.084570803 0.37855303 -0.46920127 65280
-0.074314713 0.37791008 -0.46950912 16711680
-0.082416683 0.37791008 -0.46950912 16711680
-0.12802584 0.37720793 -0.46989086 16711680
-0.13680352 0.37475896 -0.46900815 16711680
-0.088957138 0.36527181 -0.46946761 65280
-0.15467854 0.3229723 -0.46927392 65280
0.0349898 0.31911623 -0.46914634 65280
-0.0087652132 0.30672136 -0.46967945 16711680
0.033984985 0.30125323 -0.46934104 65280
-0.036282793 0.30092013 -0.46950704 65280
-0.13393235 0.29669875 -0.46919611 16711680
0.012638983 0.29310864 -0.46904695 65280
-0.15098384 0.28627503 -0.46956584 65280
-0.015328002 0.28515378 -0.46978453 65280
0.10523832 0.27747071 -0.46971691 65280
-0.13852379 0.26896384 -0.46956822 65280
0.044667635 0.26376754 -0.46969414 16711680
0.074650958 0.2626408 -0.46994445 16711680
-0.099065155 0.25998437 -0.4696646 16711680
-0.13493989 0.2558918 -0.46989188 65280
-0.1451195 0.37266785 -0.47080436 16711680
-0.045207899 0.37177885 -0.47077939 16711680
0.11527443 0.37028807 -0.47055301 16711680
0.12159504 0.36793903 -0.4704366 16711680
-0.078437701 0.36610287 -0.47053578 65280
-0.11718121 0.36052623 -0.470292 65280
-0.12466123 0.35759693 -0.47083017 65280
-0.14924289 0.35762334 -0.47004816 16711680
-0.15171814 0.3422783 -0.47065079 65280
-0.15520763 0.33596528 -0.47086599 65280
-0.14689271 0.33478194 -0.47055033 16711680
-0.1446858 0.32677343 -0.4703221 16711680
0.14137331 0.32152897 -0.47007468 65280
-0.14361152 0.31856626 -0.47013935 16711680
0.15590106 0.31348509 -0.47036341 16711680
-0.15539715 0.31298769 -0.47074351 65280
-0.013169572 0.31076714 -0.4705039 16711680
0.024551157 0.30620399 -0.47061035 16711680
-0.013167292 0.30608585 -0.47054771 16711680
-0.025093399 0.30596891 -0.47042012 65280
-0.15451004 0.29976323 -0.47016901 65280
0.016429767 0.29818609 -0.4705236 65280
-0.13546403 0.29035634 -0.47063717 16711680
-0.00030717865 0.28532699 -0.47006992 65280
-0.014660705 0.27873045 -0.47032416 65280
-0.14488281 0.27884737 -0.47036031 65280
-0.0058717555 0.26826137 -0.4707163 65280
-0.024821026 0.26771587 -0.47068813 65280
-0.055001553 0.26726428 -0.47014603 65280
-0.11763883 0.26669213 -0.47002217 16711680
-0.063949987 0.26535675 -0.47049516 65280
0.03491189 0.26305073 -0.47072867 16711680
-0.11266086 0.26258591 -0.47048149 16711680
0.024167322 0.26069975 -0.47058031 65280
0.015132911 0.26047879 -0.47098553 65280
-0.077068575 0.25652823 -0.47081637 65280
-0.064537495 0.37645257 -0.47141114 16711680
-0.05528314 0.37447163 -0.47156397 16711680
0.085765526 0.37389576 -0.47197577 16711680
0.09501414 0.37290943 -0.47184679 16711680
0.10472965 0.37198693 -0.47122315 16711680
0.054694865 0.37162533 -0.47177371 16711680
-0.15209299 0.36456788 -0.47185299 16711680
-0.15227239 0.34193072 -0.47161427 16711680
-0.15895806 0.32880577 -0.47111338 65280
0.024676787 0.31346002 -0.47159141 65280
-0.14619307 0.313537 -0.47131386 16711680
0.014786716 0.31200859 -0.47188804 65280
0.044486415 0.31085122 -0.47143403 16711680
-0.1441783 0.30472088 -0.47181115 16711680
-0.013424727 0.30272636 -0.47179943 65280
-0.034524806 0.29218042 -0.47144154 65280
-0.15564081 0.29035965 -0.47113487 65280
-0.0039985543 0.27783096 -0.47125751 65280
-0.045527209 0.26795062 -0.47135794 65280
0.018024292 0.26639688 -0.47137526 16711680
0.09206064 0.26443934 -0.47146699 16711680
-0.070709057 0.26324314 -0.47161898 65280
0.034820076 0.26137602 -0.47115561 65280
-0.0014260078 0.26101825 -0.47166941 65280
0.0053156032 0.26065156 -0.47129813 65280
-0.12612586 0.24382928 -0.47192261 65280
-0.10452742 0.23721467 -0.47178683 65280
0.074392498 0.37467933 -0.47225496 16711680
0.064506978 0.37458444 -0.47241268 16711680
0.045694541 0.36883277 -0.47275218 16711680
-0.036110129 0.36865604 -0.47245702 16711680
0.015295329 0.35775915 -0.47204649 65280
-0.039227143 0.35656691 -0.47296354 65280
-0.13589469 0.35620454 -0.4721652 65280
-0.14450231 0.35125616 -0.47238955 65280
-0.15438849 0.34935257 -0.47250554 16711680
-0.16152982 0.32169196 -0.47263065 65280
0.0056869639 0.31336597 -0.47255746 65280
0.033207942 0.31024647 -0.472451 16711680
-0.15761001 0.30632848 -0.47204107 65280
0.15483592 0.29549646 -0.47212443 16711680
0.0053079762 0.29194045 -0.4721534 65280
-0.014214915 0.29134607 -0.47249693 65280
-0.0052578198 0.29056314 -0.47294864 65280
-0.0059519503 0.28365508 -0.472469 65280
-0.13443999 0.2836009 -0.47240612 16711680
-0.15126336 0.28012401 -0.47251275 65280
0.13799149 0.27500087 -0.47255239 16711680
-0.12832096 0.27596813 -0.47250041 16711680
0.093560785 0.2724767 -0.4727841 65280
-0.014462456 0.26848891 -0.47229668 65280
-0.035460167 0.26817527 -0.47203878 65280
0.065136217 0.26394692 -0.47251883 65280
0.055372491 0.26348686 -0.47205561 65280
-0.11784672 0.24021491 -0.47291511 65280
-0.099616677 0.23839302 -0.47237378 65280
-0.11065231 0.23839302 -0.47237378 65280
-0.15286086 0.36998385 -0.47349229 16711680
0.03436162 0.36710382 -0.47316375 16711680
0.024519596 0.36727327 -0.47348031 16711680
0.014695782 0.36730587 -0.47354123 16711680
0.0058765709 0.36723697 -0.47310057 16711680
-0.00084390119 0.36641389 -0.47358963 16711680
0.12807827 0.36469281 -0.47380707 16711680
-0.15546553 0.35908464 -0.47387967 16711680
-0.020124141 0.35326815 -0.47358495 65280
-0.0094478084 0.35132092 -0.47348768 65280
-0.15531123 0.3362307 -0.47362921 16711680
-0.15342979 0.32685184 -0.47380331 16711680
0.046917621 0.31485957 -0.47301099 65280
-0.0029907492 0.31078628 -0.47325507 65280
0.0068620667 0.30891746 -0.47359762 16711680
0.042831499 0.30753174 -0.47389296 65280
0.024289308 0.30725142 -0.47383294 65280
-0.16171692 0.29945382 -0.47303486 65280
-0.024586042 0.29007491 -0.47343487 65280
0.12393127 0.28877598 -0.47389898 65280
0.084808804 0.26950943 -0.47335404 65280
-0.12513874 0.26938307 -0.47364268 16711680
-0.14523767 0.26920435 -0.47354594 65280
0.07561174 0.2667399 -0.47392967 65280
-0.14171061 0.25656515 -0.47328213 65280
-0.093195528 0.24291095 -0.47307116 65280
-0.085745245 0.37882882 -0.47497109 16711680
-0.11547256 0.37834781 -0.47460523 16711680
-0.007282313 0.36454678 -0.47410694 16711680
-0.013667911 0.36400056 -0.47423181 16711680
-0.022579068 0.36458328 -0.47403196 16711680
0.13277134 0.36296707 -0.47402206 16711680
-0.05318084 0.35944337 -0.47426549 65280
0.14254563 0.35776249 -0.47465244 16711680
-0.14252569 0.35602957 -0.47475925 65280
-0.025524938 0.35567537 -0.47428691 65280
-0.014816523 0.35289943 -0.47434726 65280
-0.15889002 0.34405217 -0.47472426 16711680
-0.15837499 0.34216836 -0.47495654 65280
-0.16575576 0.32632038 -0.47444829 65280
-0.16429225 0.31409484 -0.47499824 65280
-0.15167636 0.30579308 -0.47465453 16711680
-0.016248871 0.3026365 -0.47476208 65280
-0.14775656 0.29866159 -0.47465679 16711680
-0.1442689 0.29201043 -0.47437146 16711680
-0.15624665 0.28100362 -0.47459343 65280
-0.072112769 0.25832057 -0.47480267 65280
-0.14667845 0.25882724 -0.47480732 65280
-0.13463199 0.24783339 -0.47477552 65280
-0.084587894 0.24599093 -0.47434723 65280
0.067441463 0.37931857 -0.47502336 65280
-0.10446484 0.37863481 -0.47528777 16711680
-0.086407177 0.37209529 -0.47574952 65280
0.13717906 0.33594349 -0.47524619 65280
0.15788361 0.33443114 -0.47508273 16711680
-0.16395919 0.33394751 -0.47500324 65280
-0.15666737 0.32242683 -0.47582564 16711680
0.031170888 0.31659284 -0.47524753 65280
0.027819883 0.31382257 -0.4752619 16711680
-0.15469442 0.313759 -0.47555706 16711680
-0.16559803 0.30493197 -0.47585312 65280
-0.1546618 0.27021867 -0.47573259 65280
0.0090938546 0.26355249 -0.47552577 16711680
-0.004892305 0.25862548 -0.47579908 65280
-0.065158516 0.25897288 -0.47574702 65280
-0.1046689 0.25360957 -0.47544894 16711680
-0.077880673 0.24904206 -0.47591984 65280
-0.095011473 0.37990561 -0.4760153 16711680
-0.075352386 0.3787663 -0.47604671 16711680
-0.12530765 0.37793344 -0.47612819 16711680
-0.094013274 0.37406468 -0.47640124 65280
-0.11717756 0.36858198 -0.4762018 65280
0.0037589467 0.35613906 -0.47658867 65280
-0.016414091 0.3553853 -0.47642311 65280
0.15016919 0.35030228 -0.47634861 16711680
-0.16045234 0.35095525 -0.47669581 16711680
-0.15558553 0.34850147 -0.47629362 65280
-0.16768369 0.31863189 -0.47630718 65280
0.035054505 0.30803004 -0.47628146 65280
0.014795658 0.30604607 -0.47640228 65280
-0.032288048 0.30317199 -0.47627571 65280
-0.011558805 0.30283773 -0.47678289 16711680
0.15896399 0.29662678 -0.47612312 16711680
-0.16388503 0.29144514 -0.47600317 65280
-0.15807137 0.27571604 -0.47631273 65280
-0.13140197 0.27221382 -0.47673336 16711680
0.1365056 0.27017036 -0.47602442 16711680
-0.1549647 0.260005 -0.47684133 65280
-0.014460181 0.25960621 -0.47671923 65280
0.0053543462 0.25808111 -0.47688761 65280
-0.14158313 0.25145289 -0.47643185 65280
-0.13531291 0.37862104 -0.47724894 16711680
-0.066469096 0.37741426 -0.47704026 16711680
-0.10394717 0.37751254 -0.47768247 65280
-0.14379869 0.37760928 -0.47721419 16711680
0.075536698 0.37482125 -0.47730491 16711680
0.057640422 0.37453765 -0.47745612 16711680
-0.056787968 0.37485927 -0.477797 16711680
-0.1512454 0.37411222 -0.47768292 16711680
0.050923299 0.37240493 -0.47790763 16711680
-0.071105741 0.37181675 -0.47787958 65280
0.044150297 0.37073857 -0.47785619 16711680
0.035204824 0.36950287 -0.47788653 16711680
0.12911046 0.36851975 -0.47736749 65280
-0.15781203 0.36879092 -0.47768494 16711680
-0.12632704 0.36520991 -0.47723973 65280
-0.16322672 0.33580634 -0.477815 16711680
-0.025356404 0.30569413 -0.47797945 65280
-0.0062939096 0.30460557 -0.47761163 65280
0.0034517583 0.29818445 -0.47795683 65280
-0.0026938755 0.29800269 -0.47791192 65280
-0.018235711 0.29769963 -0.47708207 65280
-0.15148908 0.29249305 -0.47788915 16711680
0.11432295 0.28352913 -0.47714183 65280
-0.16483939 0.28212881 -0.47767171 65280
-0.13522509 0.27639672 -0.47709683 16711680
0.14208007 0.27193514 -0.47715148 16711680
-0.16176175 0.26950154 -0.47776371 65280
0.04494318 0.26197174 -0.477752 65280
-0.044710651 0.26034796 -0.47775266 65280
-0.055144984 0.2598086 -0.47728702 65280
0.015270906 0.25840625 -0.47749141 65280
-0.11414947 0.25563103 -0.47725984 16711680
-0.098242119 0.25378358 -0.47712693 16711680
0.065245539 0.37545526 -0.47823521 16711680
0.098368317 0.3721928 -0.47836116 16711680
-0.043066557 0.37173462 -0.47836027 16711680
0.024994355 0.36959431 -0.47875932 16711680
0.014797237 0.36948749 -0.47898552 16711680
0.004428234 0.36922541 -0.47897312 16711680
-0.16369963 0.35787868 -0.47881302 16711680
-0.16527487 0.34106606 -0.47894025 65280
-0.17095082 0.3114424 -0.47883549 65280
-0.15862282 0.30757481 -0.47882977 16711680
-0.15507603 0.29966116 -0.47853878 16711680
-0.031615477 0.29847604 -0.4785569 65280
-0.16799784 0.29590327 -0.47841477 65280
0.12024323 0.28691986 -0.47828355 65280
-0.1473242 0.28510013 -0.47814873 16711680
0.06476748 0.26407489 -0.47847551 65280
0.054881562 0.26328361 -0.47804818 65280
-0.024487125 0.26083285 -0.47897956 65280
0.025225041 0.25995469 -0.47866315 65280
-0.11488924 0.23889105 -0.47845134 65280
-0.1046457 0.37908813 -0.47967619 65280
0.10563351 0.37118015 -0.47923842 16711680
-0.063434556 0.37037593 -0.47977823 65280
-0.034009971 0.36969143 -0.47922245 16711680
-0.0053287968 0.3678866 -0.47938427 16711680
-0.014788516 0.36728424 -0.47986421 16711680
-0.024601223 0.36756039 -0.47964618 16711680
0.12351789 0.36644226 -0.47994706 16711680
-0.054583449 0.3650358 -0.47910669 65280
0.014399357 0.36441457 -0.47955027 65280
-0.045203593 0.36307061 -0.47905141 65280
0.13211131 0.3624984 -0.47966221 16711680
-0.16167864 0.34735394 -0.479561 65280
-0.16520026 0.34544313 -0.4791083 16711680
0.13953842 0.33924007 -0.47991115 65280
-0.17345227 0.32675958 -0.47904393 65280
-0.16151349 0.31484923 -0.47929987 16711680
0.0089333951 0.30812749 -0.47940674 16711680
0.0065578711 0.30232301 -0.47962594 65280
0.015195828 0.30160993 -0.47981086 16711680
-0.14409186 0.28015086 -0.47963217 16711680
0.10621747 0.27975291 -0.47968763 65280
-0.16595538 0.27345127 -0.47962588 65280
0.073288813 0.2658813 -0.47927684 65280
-0.12645973 0.26287362 -0.47931752 16711680
0.034993622 0.26115772 -0.47902787 65280
0.080231607 0.25532863 -0.47908106 16711680
-0.1249001 0.24132168 -0.47973558 65280
-0.095122799 0.23808075 -0.4796288 65280
-0.10518643 0.23601015 -0.47965744 65280
0.092409179 0.39158395 -0.48039374 65280
0.076559179 0.38703942 -0.48054495 65280
-0.1226958 0.37018815 -0.48016128 65280
