# .PCD v0.7 - Point Cloud Data file format
VERSION 0.7
FIELDS x y z rgba
SIZE 4 4 4 4
TYPE F F F U
COUNT 1 1 1 1
WIDTH 1166
HEIGHT 1
VIEWPOINT 0 0 0 1 0 0 0
POINTS 1166
DATA ascii
-0.25777945 0.49819031 -0.49562824 65280
-0.28243509 0.49843758 -0.49587432 65280
0.1520274 0.4927001 -0.49973673 65280
0.14706536 0.49236184 -0.49964958 65280
0.13290206 0.49235266 -0.49986482 65280
0.12741747 0.49247995 -0.49951398 65280
0.12285785 0.49464673 -0.49943781 65280
0.042408064 0.49221435 -0.49932489 65280
0.038546421 0.49190474 -0.49821538 65280
0.032436524 0.49208859 -0.49840078 65280
0.027705992 0.49225837 -0.49934867 65280
0.022387877 0.49045992 -0.49973863 65280
0.017152186 0.49249715 -0.49941045 65280
0.011891923 0.49243641 -0.49934846 65280
0.0075095738 0.49198726 -0.49949282 65280
0.0035691615 0.49229226 -0.49980253 65280
-0.002125276 0.49021682 -0.49949035 65280
-0.0073853992 0.49198729 -0.49949282 65280
-0.012642448 0.49198729 -0.49949282 65280
-0.017691445 0.49248624 -0.49969941 65280
-0.023337308 0.49241894 -0.49945205 65280
-0.027704198 0.49423641 -0.49807042 65280
-0.032130871 0.49261856 -0.49681103 65280
-0.037050873 0.4926523 -0.49659085 65280
-0.042311586 0.49289829 -0.49683762 65280
-0.047476545 0.49094382 -0.49664983 65280
-0.053146254 0.4913289 -0.49644515 65280
-0.05792883 0.49159166 -0.49611664 65280
-0.062810019 0.49141318 -0.4961738 65280
-0.067202121 0.49283695 -0.49677587 65280
-0.071899921 0.49094382 -0.49664983 65280
-0.077229142 0.49271464 -0.49665213 65280
-0.082306176 0.49096203 -0.49607399 65280
-0.087556578 0.49146944 -0.49599302 65280
-0.0929721 0.4930988 -0.49626863 65280
-0.098024517 0.49268597 -0.4967429 65280
-0.10242914 0.49094382 -0.49664989 65280
-0.10695007 0.49245012 -0.4969815 65280
-0.11233812 0.49263728 -0.49669331 65280
-0.11743289 0.49283695 -0.49677587 65280
-0.12200995 0.49191561 -0.49585 65280
-0.12782024 0.49362355 -0.49579132 65280
-0.13285898 0.49288628 -0.49505076 65280
-0.13808866 0.4928863 -0.49505091 65280
-0.14294799 0.49235106 -0.49522227 65280
-0.14710519 0.49258494 -0.49563575 65280
-0.15233454 0.49306095 -0.49623209 65280
-0.15763703 0.49289811 -0.49683771 65280
-0.16285795 0.49283674 -0.49677595 65280
-0.16796744 0.49307984 -0.49625036 65280
-0.17273214 0.49337289 -0.49573588 65280
-0.17780724 0.49265862 -0.49505857 65280
-0.18204477 0.49311388 -0.49504304 65280
-0.18689889 0.49288628 -0.49505076 65280
-0.19250569 0.49157447 -0.4958615 65280
-0.19780692 0.4930149 -0.49653971 65280
-0.20226982 0.49157447 -0.4958615 65280
-0.20736688 0.49378443 -0.49547935 65280
-0.25754708 0.4924013 -0.49545038 65280
-0.28311455 0.4937844 -0.49547929 65280
0.15314403 0.48632282 -0.49910685 65280
0.14878273 0.48632285 -0.49910688 65280
0.13220972 0.48632282 -0.49910685 65280
0.12697613 0.48632282 -0.49910685 65280
0.097642154 0.48948556 -0.49994212 65280
0.091486141 0.48805627 -0.49953014 65280
0.087311722 0.4881478 -0.49943089 65280
0.08212626 0.48978972 -0.49995339 65280
0.042366587 0.48632285 -0.49910688 65280
0.037554935 0.48806599 -0.49789697 65280
0.033194918 0.48806599 -0.49789697 65280
0.027538106 0.487093 -0.4986974 65280
0.022304526 0.48632282 -0.49910685 65280
0.017070947 0.48632282 -0.49910685 65280
0.011837366 0.48632282 -0.49910685 65280
0.0074760485 0.48632285 -0.49910688 65280
0.003114732 0.48632282 -0.49910685 65280
-0.0021188483 0.48632282 -0.49910685 65280
-0.0056079016 0.48632285 -0.49910688 65280
-0.013458272 0.48632285 -0.49910688 65280
-0.017819589 0.48632282 -0.49910685 65280
-0.023053169 0.48632282 -0.49910685 65280
-0.027295992 0.48847887 -0.49871561 65280
-0.031742837 0.48814678 -0.49738207 65280
-0.036897872 0.48717296 -0.49638981 65280
-0.042127639 0.4872945 -0.49651396 65280
-0.047370095 0.48753834 -0.49676177 65280
-0.052578375 0.48741645 -0.49663782 65280
-0.057727169 0.48680794 -0.49601758 65280
-0.062941194 0.48680794 -0.49601758 65280
-0.068155222 0.48680794 -0.49601758 65280
-0.072500236 0.48680794 -0.49601758 65280
-0.076845258 0.48680794 -0.49601758 65280
-0.082038328 0.48668641 -0.49589342 65280
-0.08723402 0.48674276 -0.49571249 65280
-0.092464626 0.48668641 -0.49589342 65280
-0.097701348 0.48680794 -0.49601758 65280
-0.10291538 0.48680794 -0.49601758 65280
-0.10810193 0.48668641 -0.49589342 65280
-0.11287651 0.48614389 -0.49557787 65280
-0.11711367 0.48674276 -0.49571249 65280
-0.12239911 0.48826212 -0.49535763 65280
-0.12724747 0.48834252 -0.49520165 65280
-0.1324615 0.48834252 -0.49520165 65280
-0.13787898 0.48785731 -0.49521688 65280
-0.14264598 0.48729241 -0.4956184 65280
-0.14786682 0.487019 -0.49647164 65280
-0.15217762 0.4877651 -0.4967545 65280
-0.15714648 0.48790413 -0.49713358 65280
-0.16229078 0.48766023 -0.49688572 65280
-0.16730487 0.48705107 -0.49626586 65280
-0.17270264 0.48718911 -0.49589586 65280
-0.17739896 0.48767602 -0.49541435 65280
-0.18286371 0.48834252 -0.49520165 65280
-0.18830569 0.48796183 -0.49532309 65280
-0.19279942 0.48628977 -0.49572679 65280
-0.19714464 0.48703444 -0.49601039 65280
-0.20255665 0.48681757 -0.49572927 65280
-0.20717326 0.48796183 -0.49532309 65280
-0.2475334 0.48753411 -0.49522698 65280
-0.25224203 0.48749346 -0.49522832 65280
-0.25781929 0.48708493 -0.49578935 65280
-0.26261491 0.48721042 -0.49523729 65280
-0.26795906 0.48745346 -0.49548551 65280
-0.27780873 0.48709565 -0.49546009 65280
-0.28225759 0.48777625 -0.49521953 65280
0.15783983 0.48328048 -0.4998185 65280
0.15291512 0.48329005 -0.49958694 65280
0.14768936 0.48329005 -0.49958694 65280
0.14246361 0.48329005 -0.49958694 65280
0.13723783 0.48329008 -0.49958694 65280
0.13191329 0.48292771 -0.49921328 65280
0.12705828 0.48315379 -0.49920639 65280
0.12302639 0.48342493 -0.4999682 65280
0.10770578 0.48365122 -0.49996114 65280
0.10247611 0.48365122 -0.49996114 65280
0.097246446 0.48365122 -0.49996114 65280
0.09197133 0.48341042 -0.49971163 65280
0.087148473 0.48387742 -0.49995407 65280
0.08293929 0.48342496 -0.49996826 65280
0.078070991 0.48365122 -0.49996114 65280
0.043164749 0.4831689 -0.49946257 65280
0.03784804 0.48277092 -0.49784943 65280
0.032635327 0.48277122 -0.49784935 65280
0.027657758 0.48287156 -0.49825212 65280
0.022248527 0.48280734 -0.49908853 65280
0.017024165 0.48268658 -0.49896404 65280
0.011810824 0.48292771 -0.49921328 65280
0.0074481117 0.4822042 -0.49846536 65280
0.0031015407 0.48196346 -0.49821591 65280
-0.0021093467 0.48184311 -0.49809122 65280
-0.0075426926 0.48278129 -0.4981586 65280
-0.012286098 0.48237926 -0.49812979 65280
-0.017771626 0.48268658 -0.49896404 65280
-0.022996172 0.48280698 -0.49908873 65280
-0.028429843 0.48332334 -0.49871981 65280
-0.03231797 0.48277128 -0.49737108 65280
-0.036544003 0.48209614 -0.49625775 65280
-0.041958816 0.48228723 -0.49615616 65280
-0.047157198 0.48228723 -0.49615616 65280
-0.052139137 0.48209614 -0.49625775 65280
-0.056851126 0.48252052 -0.49591887 65280
-0.062657885 0.48156142 -0.49540943 65280
-0.067865491 0.48168224 -0.49553406 65280
-0.073366165 0.48247832 -0.49605453 65280
-0.077894524 0.48148108 -0.49556556 65280
-0.082532972 0.48144066 -0.49528494 65280
-0.087213159 0.48164189 -0.4952535 65280
-0.092094593 0.48168224 -0.49553406 65280
-0.097408175 0.48228723 -0.49615616 65280
-0.10260655 0.48228723 -0.49615616 65280
-0.10758784 0.48247832 -0.49605453 65280
-0.11283325 0.48156145 -0.49540949 65280
-0.13702184 0.48144069 -0.495285 65280
-0.14289428 0.48228723 -0.49615616 65280
-0.14768279 0.4816258 -0.49684757 65280
-0.1528087 0.48307794 -0.497208 65280
-0.15736529 0.48238623 -0.49695292 65280
-0.16250876 0.4826507 -0.49652916 65280
-0.16715273 0.48228723 -0.49615616 65280
-0.17209139 0.48198146 -0.4963187 65280
-0.17661472 0.48236084 -0.49583381 65280
-0.19227673 0.48119915 -0.49503586 65280
-0.19761229 0.48156145 -0.49540949 65280
-0.20280285 0.48156145 -0.49540949 65280
-0.20788848 0.48131993 -0.49516046 65280
-0.24253745 0.48144031 -0.49528515 65280
-0.24778676 0.48156145 -0.49540949 65280
-0.25285155 0.48131993 -0.49516046 65280
-0.25778356 0.48133612 -0.49541607 65280
-0.26209372 0.48193172 -0.49555239 65280
-0.26743889 0.48247832 -0.49605453 65280
-0.27221522 0.48192376 -0.49578309 65280
-0.27740967 0.48192376 -0.49578309 65280
0.15260729 0.47813919 -0.49957511 65280
0.14713664 0.4784162 -0.49934694 65280
0.14193042 0.4784162 -0.49934694 65280
0.1368126 0.47777596 -0.49897954 65280
0.13223718 0.47749457 -0.49898762 65280
0.12816682 0.47786596 -0.49907327 65280
0.10733027 0.47889584 -0.49984699 65280
0.092075057 0.47921693 -0.49994057 65280
0.042281784 0.4776791 -0.49905932 65280
0.038443528 0.47800308 -0.49843407 65280
0.032518595 0.47721773 -0.49809664 65280
0.027311711 0.47697842 -0.49784625 65280
0.021450594 0.47778779 -0.49820882 65280
0.016949415 0.477709 -0.49830729 65280
0.011757743 0.47769734 -0.49859664 65280
0.0077133495 0.47783253 -0.49833602 65280
0.003089125 0.47697842 -0.49784625 65280
-0.0020998453 0.47661966 -0.49747089 65280
-0.0072846562 0.47649959 -0.49734592 65280
-0.012479835 0.47685882 -0.49772117 65280
-0.017682403 0.47721773 -0.49809664 65280
-0.023124456 0.47806844 -0.49868244 65280
-0.028103091 0.47781733 -0.49872157 65280
-0.033235747 0.47800505 -0.49711168 65280
-0.037485275 0.47666317 -0.49631503 65280
-0.041786633 0.47650322 -0.49614847 65280
-0.046972182 0.47658318 -0.49623179 65280
-0.05236486 0.47638261 -0.49632278 65280
-0.057289004 0.47626269 -0.4958989 65280
-0.062453277 0.4761824 -0.49581566 65280
-0.067626886 0.4761824 -0.49581566 65280
-0.072800487 0.47618243 -0.49581566 65280
-0.077974096 0.47618243 -0.49581566 65280
-0.08307755 0.4757821 -0.4953993 65280
-0.087393127 0.475822 -0.49544099 65280
-0.091770373 0.47618243 -0.49581566 65280
-0.097041696 0.47666323 -0.49631509 65280
-0.10227171 0.47690296 -0.49656516 65280
-0.10739934 0.47666323 -0.49631509 65280
-0.11242671 0.47602242 -0.4956491 65280
-0.11725663 0.4760682 -0.49501351 65280
-0.13323204 0.47586238 -0.4951835 65280
-0.13807377 0.47584224 -0.49576059 65280
-0.14217634 0.47654283 -0.49619028 65280
-0.14717813 0.47613996 -0.49697077 65280
-0.15251246 0.47776562 -0.49686146 65280
-0.15761757 0.47629258 -0.49622905 65280
-0.16255818 0.4764232 -0.49606526 65280
-0.16776283 0.47650319 -0.49614847 65280
-0.1733201 0.47643256 -0.49676135 65280
-0.17799595 0.47618267 -0.49581552 65280
-0.20203869 0.47670254 -0.49516156 65280
-0.22266608 0.47658256 -0.4950366 65280
-0.23832746 0.4760682 -0.49501351 65280
-0.24260621 0.476062 -0.49569091 65280
-0.24700315 0.47603121 -0.49539268 65280
-0.25726128 0.47682297 -0.49528632 65280
-0.26236701 0.47594312 -0.49556535 65280
-0.26762763 0.47610372 -0.49573174 65280
-0.27264857 0.47602254 -0.49594784 65280
-0.27743626 0.47666341 -0.496315 65280
0.15186866 0.47310877 -0.49982297 65280
0.14744738 0.47280389 -0.49949968 65280
0.14288272 0.47252366 -0.49950716 65280
0.1378008 0.47232908 -0.49899709 65280
0.13266414 0.47248751 -0.49916452 65280
0.12748012 0.47248727 -0.49916464 65280
0.12265331 0.47246924 -0.49983954 65280
0.11694594 0.47236735 -0.49973178 65280
0.11200629 0.47280377 -0.49949983 65280
0.10705557 0.47308356 -0.49949256 65280
0.10225952 0.47304136 -0.49975091 65280
0.097701684 0.47268757 -0.49972329 65280
0.092807226 0.47279108 -0.49978963 65280
0.077227153 0.47270197 -0.49969554 65280
0.072205707 0.47256675 -0.4992483 65280
0.067271501 0.4726128 -0.49960127 65280
0.047803801 0.47243509 -0.49941266 65280
0.04281573 0.47240806 -0.49908093 65280
0.037601579 0.47201136 -0.49866268 65280
0.032396123 0.47161442 -0.49824452 65280
0.027202375 0.472018 -0.49746361 65280
0.022026258 0.47189915 -0.49733806 65280
0.016627489 0.47201583 -0.49797717 65280
0.012198028 0.47200349 -0.49830738 65280
0.0080311373 0.47109801 -0.49800003 65280
0.0030763687 0.47189954 -0.49733785 65280
-0.0025229834 0.47233903 -0.49719855 65280
-0.0072590113 0.4717803 -0.49721247 65280
-0.012648609 0.4714779 -0.49779803 65280
-0.017621584 0.47177339 -0.49841169 65280
-0.022804298 0.47193211 -0.49857897 65280
-0.027990196 0.47209084 -0.49874634 65280
-0.032544933 0.47188395 -0.49772364 65280
-0.037400991 0.47254011 -0.49680853 65280
-0.04169485 0.47242087 -0.49668318 65280
-0.046862368 0.47242087 -0.49668318 65280
-0.051704079 0.47200382 -0.49720693 65280
-0.057164192 0.47218239 -0.49643242 65280
-0.062327366 0.47218239 -0.49643242 65280
-0.06783475 0.47157454 -0.49675563 65280
-0.07291013 0.47112101 -0.49742144 65280
-0.077616163 0.47094217 -0.49723339 65280
-0.082549796 0.4718025 -0.49663442 65280
-0.087282702 0.47218239 -0.49643242 65280
-0.09244588 0.47218239 -0.49643242 65280
-0.09715189 0.47186071 -0.49705648 65280
-0.1019889 0.4717803 -0.49721253 65280
-0.10715599 0.4717803 -0.49721253 65280
-0.11109066 0.47167584 -0.49670178 65280
-0.11716361 0.47047061 -0.49583247 65280
-0.13265628 0.47058946 -0.49595803 65280
-0.13805391 0.47218239 -0.49643242 65280
-0.14291628 0.47141373 -0.49706769 65280
-0.14713672 0.47200382 -0.49720693 65280
-0.15189816 0.47242087 -0.49668318 65280
-0.15748669 0.47035176 -0.49570689 65280
-0.16214792 0.4705748 -0.49570161 65280
-0.16731189 0.47218239 -0.49643242 65280
-0.17297606 0.47200382 -0.49720693 65280
-0.17678782 0.47129816 -0.496223 65280
-0.19779062 0.47023249 -0.49558157 65280
-0.20299171 0.47035176 -0.49570689 65280
-0.20776784 0.47012872 -0.49571231 65280
-0.21243536 0.47035176 -0.49570689 65280
-0.21758682 0.47035176 -0.49570689 65280
-0.22268121 0.4702329 -0.49558139 65280
-0.23206611 0.47011328 -0.49545622 65280
-0.23768494 0.47005016 -0.49629197 65280
-0.24303843 0.47218239 -0.49643242 65280
-0.24761073 0.47013929 -0.49638614 65280
-0.25272453 0.47023249 -0.49558157 65280
-0.26738402 0.47035176 -0.49570689 65280
-0.27284721 0.47126707 -0.4960697 65280
-0.27745959 0.47218239 -0.49643242 65280
0.14798342 0.46684179 -0.49975744 65280
0.14258645 0.46721807 -0.49963832 65280
0.13741936 0.46721807 -0.49963832 65280
0.13228521 0.46733576 -0.49976444 65280
0.12737267 0.46704355 -0.49997371 65280
0.11711291 0.46744084 -0.4996331 65280
0.11360627 0.46630788 -0.49927279 65280
0.077136703 0.46721807 -0.49963832 65280
0.072116002 0.46658641 -0.49926627 65280
0.066577978 0.46704355 -0.49997371 65280
0.052288618 0.46648991 -0.4993459 65280
0.047796182 0.46662873 -0.49900782 65280
0.042657159 0.46686488 -0.49925977 65280
0.037484951 0.46674681 -0.49913377 65280
0.032521777 0.46670032 -0.498781 65280
0.027116187 0.46711782 -0.49770957 65280
0.021954022 0.46694088 -0.49752051 65280
0.017239008 0.46711782 -0.49770954 65280
0.012510152 0.46580327 -0.49812534 65280
0.0082156397 0.46568561 -0.49799922 65280
0.0030646822 0.46676415 -0.49733135 65280
-0.0019134373 0.46712643 -0.49723309 65280
-0.0072425269 0.46729437 -0.49789885 65280
-0.011538653 0.46729437 -0.49789882 65280
-0.017566547 0.46632069 -0.49898285 65280
-0.02251035 0.46670032 -0.498781 65280
-0.027196385 0.46681413 -0.49872047 65280
-0.033583961 0.46742958 -0.49763817 65280
-0.038174629 0.46767369 -0.49769711 65280
-0.042724289 0.46760881 -0.49716538 65280
-0.047169551 0.4674086 -0.4974134 65280
-0.052090645 0.46707171 -0.49735659 65280
-0.057012621 0.46714342 -0.49712962 65280
-0.062185712 0.46732002 -0.49731892 65280
-0.067165166 0.4674252 -0.4977349 65280
-0.071684405 0.46729437 -0.49789882 65280
-0.078558207 0.46729437 -0.49789882 65280
-0.082962885 0.46724433 -0.49735916 65280
-0.088016599 0.4678067 -0.496777 65280
-0.093148895 0.46752846 -0.49678332 65280
-0.097778872 0.46676412 -0.49733132 65280
-0.10175728 0.46843237 -0.49729377 65280
-0.10703555 0.46715841 -0.4976314 65280
-0.11224081 0.46732873 -0.49712551 65280
-0.11692628 0.46573469 -0.49684057 65280
-0.12206845 0.46762836 -0.49583367 65280
-0.12716332 0.4674511 -0.49564481 65280
-0.13224252 0.4653421 -0.49642009 65280
-0.13764733 0.46776384 -0.49657959 65280
-0.14310563 0.46679986 -0.49711013 65280
-0.14858505 0.46881169 -0.49709207 65280
-0.15290263 0.46761167 -0.49626726 65280
-0.15774472 0.46554583 -0.49543086 65280
-0.16322742 0.46552604 -0.4959268 65280
-0.16753858 0.46758574 -0.49654058 65280
-0.17220214 0.46727958 -0.49711391 65280
-0.17740296 0.46523273 -0.49652404 65280
-0.18226761 0.46763453 -0.49566859 65280
-0.19224426 0.46515685 -0.49592078 65280
-0.19728945 0.46526259 -0.49633652 65280
-0.20242655 0.46526259 -0.49633652 65280
-0.20756365 0.46526259 -0.49633652 65280
-0.2125922 0.46502668 -0.49608442 65280
-0.21783786 0.46526259 -0.49633652 65280
-0.22297494 0.46526259 -0.49633652 65280
-0.22803542 0.46510541 -0.4961684 65280
-0.23239295 0.46526259 -0.49633652 65280
-0.23665224 0.46526855 -0.49703437 65280
-0.24242473 0.46720248 -0.49719268 65280
-0.24753343 0.46547097 -0.49725038 65280
-0.25234053 0.46573469 -0.49684057 65280
-0.25761437 0.46975672 -0.49507958 65280
-0.2625317 0.46784136 -0.49545613 65280
-0.26708952 0.46530896 -0.49517936 65280
-0.2724956 0.46578202 -0.49568281 65280
-0.27736968 0.46792489 -0.49614787 65280
0.071951911 0.46211517 -0.49994484 65280
0.057990637 0.46181872 -0.49992937 65280
0.05279706 0.46142924 -0.49950737 65280
0.04761878 0.46111685 -0.49917006 65280
0.042484805 0.46119457 -0.49925458 65280
0.037342492 0.46119452 -0.49925452 65280
0.032179281 0.46088326 -0.49891669 65280
0.027016418 0.46049348 -0.49849477 65280
0.021900449 0.46088225 -0.49891722 65280
0.016770123 0.46111637 -0.49917033 65280
0.012478705 0.46084338 -0.49887496 65280
0.0081933104 0.46064883 -0.49866384 65280
0.003054434 0.46033752 -0.498326 65280
-0.0020800137 0.4606486 -0.49866396 65280
-0.0072257202 0.46127278 -0.49933881 65280
-0.012381445 0.46174103 -0.49984491 65280
-0.022662051 0.46142867 -0.49950761 65280
-0.027793454 0.46119457 -0.49925458 65280
-0.032941625 0.46127254 -0.49933892 65280
-0.038097393 0.46142843 -0.49950773 65280
-0.043197896 0.46096045 -0.4990015 65280
-0.047795754 0.4602443 -0.49857336 65280
-0.051918734 0.46062395 -0.49833098 65280
-0.056808405 0.46018165 -0.49815726 65280
-0.062012579 0.46072683 -0.49874824 65280
-0.06720677 0.46111631 -0.4991703 65280
-0.072384626 0.46135047 -0.49942333 65280
-0.0775019 0.46119481 -0.49925447 65280
-0.082546704 0.46064913 -0.49866369 65280
-0.087630413 0.46113122 -0.49796697 65280
-0.092670225 0.46066269 -0.49746102 65280
-0.097823501 0.46078002 -0.49758732 65280
-0.10305956 0.46270502 -0.49780494 65280
-0.10798357 0.46033347 -0.49862701 65280
-0.11249814 0.46136546 -0.49821991 65280
-0.11751362 0.4608973 -0.49771369 65280
-0.1217588 0.46153408 -0.49718639 65280
-0.12505192 0.46106482 -0.49668092 65280
-0.13359201 0.46106482 -0.49668092 65280
-0.13707863 0.46129942 -0.49693364 65280
-0.1421321 0.46106482 -0.49668092 65280
-0.14709122 0.46302131 -0.49696195 65280
-0.15385298 0.46186668 -0.49512202 65280
-0.15726382 0.46186668 -0.49512202 65280
-0.16152735 0.46186668 -0.49512202 65280
-0.16946043 0.46106482 -0.49668092 65280
-0.17307441 0.46121573 -0.49745008 65280
-0.17728108 0.46141678 -0.49706006 65280
-0.18397859 0.46106482 -0.49668092 65280
-0.18725191 0.46485221 -0.4961395 65280
-0.20191281 0.46106482 -0.49668092 65280
-0.20703685 0.46106482 -0.49668092 65280
-0.2121609 0.46106482 -0.49668092 65280
-0.21643095 0.46106482 -0.49668092 65280
-0.22155501 0.46106482 -0.49668092 65280
-0.2327764 0.46129942 -0.49693364 65280
-0.23758428 0.46044156 -0.49746537 65280
-0.24289182 0.4608916 -0.49822918 65280
-0.24755168 0.46026006 -0.49824142 65280
-0.25220761 0.46054912 -0.49794614 65280
-0.25761327 0.462715 -0.49603 65280
-0.26299936 0.46186668 -0.49512202 65280
-0.26811558 0.46186668 -0.49512202 65280
-0.27323183 0.46186668 -0.49512202 65280
0.05260931 0.45601878 -0.49974141 65280
0.047481775 0.45601881 -0.49974138 65280
0.04237752 0.45625073 -0.49999559 65280
0.037229747 0.45677286 -0.49934044 65280
0.0337939 0.45654052 -0.4990865 65280
0.026920661 0.45509061 -0.49872491 65280
0.021848008 0.45677286 -0.49934044 65280
0.016726466 0.45613492 -0.49986839 65280
0.012735096 0.45627016 -0.49960774 65280
0.0090276189 0.45654052 -0.4990865 65280
0.0030448949 0.45509064 -0.49872488 65280
-0.0029314049 0.45688903 -0.49946752 65280
-0.02258797 0.45613492 -0.49986839 65280
-0.027715938 0.45613495 -0.49986839 65280
-0.046483014 0.45654052 -0.4990865 65280
-0.062709197 0.45654052 -0.4990865 65280
-0.067030378 0.45613492 -0.49986839 65280
-0.071827747 0.45635545 -0.4998644 65280
-0.077227362 0.45654052 -0.4990865 65280
-0.087341934 0.4573493 -0.49752393 65280
-0.092458166 0.4573493 -0.49752393 65280
-0.097574405 0.4573493 -0.49752393 65280
-0.10098523 0.4573493 -0.49752393 65280
-0.11292312 0.4573493 -0.49752393 65280
-0.11803935 0.4573493 -0.49752393 65280
-0.12315557 0.4581022 -0.4971236 65280
-0.12827182 0.45960799 -0.49632296 65280
-0.1322511 0.45935702 -0.49645641 65280
-0.13713996 0.45825279 -0.49704355 65280
-0.14191511 0.45885509 -0.49672329 65280
-0.14740086 0.45905614 -0.49633321 65280
-0.15195328 0.45902333 -0.49569002 65280
-0.15690313 0.45855439 -0.49518424 65280
-0.16217403 0.45902294 -0.49569023 65280
-0.16749631 0.45910606 -0.49658984 65280
-0.17261252 0.45795161 -0.49720368 65280
-0.17815512 0.45923156 -0.49652314 65280
-0.18241864 0.45923156 -0.49652314 65280
-0.18791288 0.45949107 -0.49619639 65280
-0.19292986 0.45925719 -0.49594319 65280
-0.19767079 0.45903644 -0.49594733 65280
-0.20245723 0.45885509 -0.49672329 65280
-0.20714712 0.45847863 -0.49692345 65280
-0.21149592 0.45825279 -0.49704355 65280
-0.21695325 0.45885509 -0.49672329 65280
-0.22249581 0.45923156 -0.49652314 65280
-0.22701202 0.45925719 -0.49594319 65280
-0.23230195 0.45885509 -0.49672329 65280
-0.23741817 0.4573493 -0.49752393 65280
-0.24168169 0.4573493 -0.49752393 65280
-0.25361958 0.4573493 -0.49752393 65280
-0.25782639 0.45875487 -0.49661481 65280
-0.26252934 0.45878869 -0.49543729 65280
-0.26750067 0.45855439 -0.49518418 65280
-0.27260515 0.45855439 -0.49518424 65280
0.15312113 0.45283195 -0.49992585 65280
0.1480049 0.45283195 -0.49992585 65280
0.14374137 0.45283195 -0.49992585 65280
0.056765366 0.45283195 -0.49992585 65280
0.052501839 0.45283195 -0.49992585 65280
0.047385603 0.45283195 -0.49992585 65280
0.042269364 0.45283195 -0.49992585 65280
0.037153136 0.45358485 -0.49952555 65280
0.031820238 0.45248196 -0.49904227 65280
0.026847191 0.4501003 -0.49936476 65280
0.021804424 0.45358485 -0.49952555 65280
0.017540896 0.45283195 -0.49992585 65280
0.012851014 0.45320839 -0.4997257 65280
0.008044729 0.45217767 -0.49935347 65280
0.0030358108 0.45002389 -0.49927956 65280
-0.0020713406 0.45408678 -0.49925864 65280
-0.0068464936 0.45343426 -0.4996056 65280
-0.012303811 0.45283195 -0.49992585 65280
-0.018272754 0.45283195 -0.49992585 65280
-0.022536283 0.45283195 -0.49992585 65280
-0.027652517 0.45283195 -0.49992585 65280
-0.031916048 0.45283195 -0.49992585 65280
-0.043427575 0.45320839 -0.4997257 65280
-0.048458543 0.45494005 -0.49880496 65280
-0.053207006 0.45485905 -0.49847049 65280
-0.057475574 0.45491695 -0.49853405 65280
-0.061760753 0.45408678 -0.49925864 65280
-0.066876993 0.45283195 -0.49992585 65280
-0.072419584 0.45320839 -0.4997257 65280
-0.077109456 0.45433772 -0.49912521 65280
-0.082183354 0.45485905 -0.49847049 65280
-0.087163426 0.45416361 -0.49770772 65280
-0.092246108 0.45404738 -0.49758062 65280
-0.097375907 0.45416358 -0.49770766 65280
-0.10261213 0.4547433 -0.49834329 65280
-0.10772359 0.45474327 -0.49834329 65280
-0.11275044 0.45439589 -0.49796161 65280
-0.11776862 0.45404738 -0.49758068 65280
-0.12287312 0.45404744 -0.49758071 65280
-0.12798822 0.45483747 -0.49722344 65280
-0.13304812 0.45468259 -0.49705416 65280
-0.13829337 0.45392197 -0.49691933 65280
-0.14201647 0.45194688 -0.49649534 65280
-0.14855292 0.45235917 -0.49557617 65280
-0.15298998 0.45403689 -0.49513242 65280
-0.15834324 0.45378277 -0.49537534 65280
-0.16256763 0.45398596 -0.49629197 65280
-0.1668359 0.45443696 -0.49709037 65280
-0.17223381 0.45192772 -0.49732977 65280
-0.17733723 0.45225668 -0.49683398 65280
-0.18199056 0.45221809 -0.49679157 65280
-0.18657905 0.45202434 -0.49658 65280
-0.19304129 0.45235917 -0.49557617 65280
-0.19740459 0.45268363 -0.4954744 65280
-0.20136556 0.45249003 -0.49571896 65280
-0.2075011 0.45392233 -0.49691916 65280
-0.21298192 0.45422035 -0.49724597 65280
-0.21795253 0.4543733 -0.49671522 65280
-0.22278611 0.45383143 -0.49612248 65280
-0.22784117 0.45375401 -0.49603784 65280
-0.23276073 0.45203212 -0.49674106 65280
-0.23760164 0.4518809 -0.49703377 65280
-0.24242473 0.45217025 -0.49735183 65280
-0.24748257 0.45230168 -0.49780101 65280
-0.25261569 0.45217106 -0.49735147 65280
-0.25694406 0.45184463 -0.49684075 65280
-0.26334286 0.45235339 -0.49558708 65280
-0.26764315 0.45250881 -0.49528426 65280
-0.27289283 0.4525373 -0.49522865 65280
0.037194572 0.4471969 -0.4995243 65280
0.03184095 0.44557256 -0.49925542 65280
0.0081158094 0.4450528 -0.49990934 65280
0.0030262719 0.44557256 -0.49925542 65280
-0.001941035 0.4476437 -0.49944851 65280
-0.007487529 0.44524816 -0.49988094 65280
-0.022478417 0.44942537 -0.49984956 65280
-0.027589092 0.44954038 -0.49997708 65280
-0.042759702 0.4450528 -0.49990934 65280
-0.048104376 0.44753447 -0.49928188 65280
-0.053053103 0.44979358 -0.49902451 65280
-0.058172066 0.44994694 -0.49919462 65280
-0.062951446 0.44918323 -0.49982721 65280
-0.068197452 0.4450528 -0.49990934 65280
-0.072320633 0.44728154 -0.49939841 65280
-0.077040657 0.44987655 -0.4988074 65280
-0.082456693 0.44808269 -0.49800166 65280
-0.087197438 0.44802082 -0.49767053 65280
-0.092387684 0.4474147 -0.49884221 65280
-0.097093523 0.44760627 -0.49905494 65280
-0.10171732 0.44741493 -0.49884206 65280
-0.10786682 0.44782662 -0.49791539 65280
-0.11218928 0.44802082 -0.49767053 65280
-0.11727227 0.44802082 -0.49767053 65280
-0.12204652 0.44783574 -0.49772853 65280
-0.12743825 0.44802082 -0.49767053 65280
-0.13245595 0.44792062 -0.4971292 65280
-0.1374663 0.44805828 -0.49691442 65280
-0.14237653 0.44766498 -0.49625519 65280
-0.14725848 0.44758642 -0.4953531 65280
-0.15232386 0.44758642 -0.4953531 65280
-0.15775295 0.44761211 -0.49590576 65280
-0.16273728 0.44813371 -0.49710083 65280
-0.16767776 0.44802082 -0.49767053 65280
-0.17278533 0.44661206 -0.49672067 65280
-0.17778797 0.44718552 -0.49613264 65280
-0.18285728 0.44718552 -0.49613264 65280
-0.18838105 0.44805926 -0.49612105 65280
-0.19294536 0.44781691 -0.49560818 65280
-0.20279703 0.44778275 -0.4958151 65280
-0.20737931 0.44805455 -0.49699193 65280
-0.21212728 0.44796312 -0.49760684 65280
-0.21701065 0.44812706 -0.4969911 65280
-0.221893 0.44827771 -0.49611822 65280
-0.2269662 0.44827771 -0.49611822 65280
-0.23234209 0.44686478 -0.4967562 65280
-0.23681121 0.4470028 -0.49690935 65280
-0.24248692 0.44686478 -0.4967562 65280
-0.24755935 0.44656637 -0.49691486 65280
-0.2522665 0.44741559 -0.49638787 65280
-0.2577042 0.44805926 -0.49612105 65280
-0.2621409 0.44770151 -0.49548078 65280
-0.26713929 0.44758648 -0.49535316 65280
-0.27220467 0.44758642 -0.4953531 65280
0.041925531 0.44167155 -0.49981949 65280
0.036496527 0.44208768 -0.49929622 65280
0.031767473 0.44230521 -0.49929386 65280
0.02673156 0.44330508 -0.49980038 65280
0.008095446 0.44167155 -0.49981949 65280
0.0030192882 0.44230521 -0.49929386 65280
-0.0020539209 0.44230521 -0.49929386 65280
-0.0067046881 0.44193166 -0.4994925 65280
-0.018949995 0.4412176 -0.49930584 65280
-0.022341013 0.44144464 -0.49956268 65280
-0.047382206 0.44222385 -0.4994503 65280
-0.052853405 0.44324791 -0.49973637 65280
-0.057993051 0.44482428 -0.49965328 65280
-0.062947728 0.44167155 -0.49981949 65280
-0.067953199 0.4412176 -0.49930584 65280
-0.073473766 0.44325393 -0.49850622 65280
-0.078031547 0.44311398 -0.49773121 65280
-0.083032764 0.44277239 -0.49734655 65280
-0.08781179 0.44289649 -0.49773365 65280
-0.092501931 0.44244039 -0.49903321 65280
-0.097106688 0.44252273 -0.49929142 65280
-0.10178045 0.44284666 -0.49866611 65280
-0.10725128 0.44315416 -0.49795252 65280
-0.11208589 0.44305825 -0.49742109 65280
-0.11686616 0.44311398 -0.49773115 65280
-0.12193155 0.44311401 -0.49773121 65280
-0.12699693 0.44311401 -0.49773121 65280
-0.13238263 0.44247061 -0.49718335 65280
-0.13765101 0.44208807 -0.4965778 65280
-0.14207083 0.44285074 -0.4957948 65280
-0.14702769 0.44286418 -0.495518 65280
-0.15161373 0.44258863 -0.49560386 65280
-0.15678401 0.4425604 -0.49618512 65280
-0.16228782 0.44265813 -0.49721858 65280
-0.16739066 0.44277239 -0.49734655 65280
-0.17214118 0.4424696 -0.49618623 65280
-0.17723924 0.44357544 -0.49578702 65280
-0.18229292 0.44357544 -0.49578708 65280
-0.18730511 0.44315892 -0.49584669 65280
-0.1917557 0.44343084 -0.49501449 65280
-0.20233166 0.44202852 -0.49536371 65280
-0.20756204 0.44208801 -0.4965778 65280
-0.21272409 0.44231656 -0.49683392 65280
-0.21750043 0.44224107 -0.49593019 65280
-0.22272213 0.44357544 -0.49578708 65280
-0.22777577 0.44357544 -0.49578708 65280
-0.23295009 0.44182527 -0.49603805 65280
-0.23777823 0.44263607 -0.49596286 65280
-0.24262376 0.44151682 -0.49593782 65280
-0.24773444 0.44163108 -0.4960658 65280
-0.25208029 0.44325686 -0.49595642 65280
-0.25761527 0.44368148 -0.49573064 65280
-0.26294765 0.44323152 -0.49540359 65280
-0.26799738 0.44323152 -0.49540359 65280
0.057016481 0.43841609 -0.49985158 65280
0.046878416 0.43830335 -0.49972278 65280
0.041816939 0.43830335 -0.49972278 65280
0.036727499 0.4379645 -0.49933672 65280
0.032040704 0.43858784 -0.49979806 65280
0.02797297 0.43801889 -0.49964747 65280
0.0080746477 0.43830296 -0.49972296 65280
0.0030076485 0.43762594 -0.49895042 65280
-0.0027136758 0.43651581 -0.49818164 65280
-0.0070982575 0.43751281 -0.49882174 65280
-0.012172119 0.43830335 -0.49972278 65280
-0.017233593 0.43830335 -0.49972278 65280
-0.022272095 0.43785176 -0.49920788 65280
-0.027364023 0.43841606 -0.49985161 65280
-0.042540964 0.43830335 -0.49972278 65280
-0.047602441 0.43830335 -0.49972278 65280
-0.052677482 0.43841606 -0.49985161 65280
-0.057710081 0.43819067 -0.49959397 65280
-0.062689818 0.43762594 -0.49895042 65280
-0.067847878 0.4367629 -0.49827677 65280
-0.072674826 0.4372642 -0.4979158 65280
-0.077639878 0.43755338 -0.49700704 65280
-0.082797915 0.43854588 -0.4975175 65280
-0.087493241 0.43701592 -0.49789953 65280
-0.093012601 0.43762559 -0.49895069 65280
-0.098014347 0.43739969 -0.49869317 65280
-0.10324733 0.43711305 -0.49800974 65280
-0.10784958 0.43734488 -0.49720278 65280
-0.11287821 0.43707103 -0.49726352 65280
-0.11800534 0.43698049 -0.49759477 65280
-0.12289816 0.43697435 -0.49771133 65280
-0.12773187 0.43743262 -0.49724108 65280
-0.13302737 0.43738389 -0.49681395 65280
-0.1378032 0.43618345 -0.496068 65280
-0.14337552 0.4380421 -0.495709 65280
-0.14718714 0.43815479 -0.49583784 65280
-0.15303433 0.43807966 -0.49575195 65280
-0.15773153 0.4360643 -0.49624154 65280
-0.16235149 0.43721461 -0.49662083 65280
-0.16751665 0.43739775 -0.49656391 65280
-0.17294127 0.43786621 -0.49535424 65280
-0.18260133 0.43756992 -0.49517354 65280
-0.18731359 0.43781623 -0.49545151 65280
-0.192883 0.43565565 -0.49546772 65280
-0.19800869 0.43588132 -0.49572527 65280
-0.202995 0.43606317 -0.49624217 65280
-0.20782216 0.43655968 -0.49649718 65280
-0.21290143 0.43634689 -0.49600628 65280
-0.21820834 0.43768144 -0.49545249 65280
-0.22222598 0.43777856 -0.49540868 65280
-0.22717795 0.43762696 -0.49523753 65280
-0.23137209 0.43790105 -0.49554807 65280
-0.23801979 0.4380421 -0.495709 65280
-0.24245651 0.43599528 -0.49585345 65280
-0.24757004 0.43565565 -0.49546778 65280
-0.25268215 0.43786618 -0.49535424 65280
-0.25716457 0.43974909 -0.49517882 65280
-0.26757091 0.43752509 -0.49527597 65280
0.10700709 0.43063399 -0.49964795 65280
0.1019206 0.43041086 -0.49938905 65280
0.097033545 0.4326047 -0.49960992 65280
0.092062689 0.43253732 -0.49953252 65280
0.086830057 0.43041086 -0.49938905 65280
0.071777567 0.43063399 -0.49964795 65280
0.06641496 0.4312717 -0.49938434 65280
0.061959162 0.43312225 -0.49926868 65280
0.057380538 0.43266058 -0.49898568 65280
0.052308984 0.43308443 -0.49926186 65280
0.047339253 0.43292856 -0.49929619 65280
0.042450204 0.4328239 -0.49904987 65280
0.038135938 0.43299878 -0.49898383 65280
0.033217553 0.43282384 -0.49904981 65280
0.028199308 0.43310338 -0.4993732 65280
0.023159344 0.43310338 -0.4993732 65280
0.018119385 0.43310338 -0.49937314 65280
0.013079425 0.43310338 -0.4993732 65280
0.00803864 0.43304738 -0.49930853 65280
0.0029936812 0.43189287 -0.49860105 65280
-0.0020333966 0.43129578 -0.49791169 65280
-0.0070572039 0.43129578 -0.49791175 65280
-0.012413524 0.43299878 -0.49898383 65280
-0.016849346 0.43299878 -0.49898383 65280
-0.022925548 0.43317175 -0.49898285 65280
-0.027536642 0.43319035 -0.49920553 65280
-0.032280229 0.43310338 -0.4993732 65280
-0.037320189 0.43310338 -0.49937314 65280
-0.042343274 0.43293566 -0.49917918 65280
-0.047382154 0.43293563 -0.49917918 65280
-0.052440077 0.43310338 -0.49937314 65280
-0.057163194 0.43314236 -0.49915016 65280
-0.062322631 0.43137074 -0.49799782 65280
-0.067070238 0.43154734 -0.49749038 65280
-0.072541542 0.43132186 -0.49763051 65280
-0.077301487 0.43084753 -0.4973951 65280
-0.082426876 0.43288729 -0.49725425 65280
-0.087155215 0.43154734 -0.49749038 65280
-0.093523413 0.43311447 -0.49876052 65280
-0.097525053 0.43152016 -0.4981699 65280
-0.10248052 0.43122119 -0.49782559 65280
-0.10740957 0.4308475 -0.49739504 65280
-0.11252525 0.43122113 -0.49782553 65280
-0.11766966 0.43166819 -0.49834299 65280
-0.12263302 0.43144482 -0.49808428 65280
-0.127296 0.43145072 -0.49737996 65280
-0.13230485 0.43095008 -0.49627095 65280
-0.13731547 0.43095005 -0.4962709 65280
-0.1426446 0.43087369 -0.49671602 65280
-0.1475284 0.43077266 -0.49730909 65280
-0.15226106 0.43106592 -0.49693745 65280
-0.15748079 0.43128592 -0.49665862 65280
-0.16236858 0.43095008 -0.49627095 65280
-0.16702732 0.43148696 -0.49626863 65280
-0.17225528 0.43208665 -0.49510032 65280
-0.18310314 0.43134987 -0.49549207 65280
-0.18727541 0.43134987 -0.49549207 65280
-0.19248326 0.43179917 -0.49600825 65280
-0.19749479 0.43106201 -0.49640021 65280
-0.20268215 0.43069774 -0.49722305 65280
-0.2076797 0.43139821 -0.49678767 65280
-0.21217319 0.43116438 -0.4962703 65280
-0.21731569 0.43134987 -0.49549207 65280
-0.2223224 0.43134987 -0.49549207 65280
-0.22732912 0.43134987 -0.49549207 65280
-0.23251735 0.43095008 -0.49627095 65280
-0.23752795 0.43095008 -0.49627095 65280
-0.24260169 0.43106201 -0.49640021 65280
-0.24717626 0.43103004 -0.49611515 65280
-0.25236267 0.43208665 -0.49510032 65280
-0.26738283 0.43134987 -0.49549207 65280
0.1075652 0.42705703 -0.49966216 65280
0.1025186 0.42719182 -0.49940172 65280
0.097500153 0.42719185 -0.49940172 65280
0.092481703 0.42719182 -0.49940172 65280
0.087530784 0.4275254 -0.49979067 65280
0.082508415 0.4275254 -0.49979067 65280
0.077827178 0.42711383 -0.49984771 65280
0.072943881 0.42724442 -0.4997136 65280
0.068191938 0.42696989 -0.49914226 65280
0.0631264 0.42663673 -0.49875316 65280
0.058128726 0.42674756 -0.49888295 65280
0.052902412 0.42663735 -0.49929214 65280
0.048353992 0.4265421 -0.49918103 65280
0.043100659 0.42685834 -0.49901283 65280
0.038066756 0.42663676 -0.49875316 65280
0.033062559 0.42674753 -0.49888295 65280
0.028080788 0.42649072 -0.49983737 65280
0.0230659 0.42656481 -0.49992388 65280
0.013020209 0.42634273 -0.49966449 65280
0.008241632 0.42673269 -0.49940324 65280
0.0029820416 0.42652598 -0.49862331 65280
-0.0016099137 0.42672759 -0.49823296 65280
-0.0073740878 0.42674002 -0.49862278 65280
-0.012049834 0.42652595 -0.49862331 65280
-0.017060461 0.42652598 -0.49862331 65280
-0.022071084 0.42652595 -0.49862331 65280
-0.027081707 0.42652598 -0.49862331 65280
-0.032133654 0.42708066 -0.49927211 65280
-0.03713192 0.42685837 -0.4990128 65280
-0.042135064 0.42674753 -0.49888295 65280
-0.047173694 0.4269695 -0.49914247 65280
-0.052216232 0.42719182 -0.49940172 65280
-0.0571892 0.42685872 -0.49901262 65280
-0.061713945 0.42672756 -0.4982329 65280
-0.067470118 0.42690921 -0.49719253 65280
-0.071898021 0.42652264 -0.49749246 65280
-0.077127703 0.42692918 -0.49784261 65280
-0.082134418 0.42692918 -0.49784261 65280
-0.08722581 0.42657897 -0.49734926 65280
-0.09214785 0.42742038 -0.49758142 65280
-0.097154558 0.42692918 -0.49784261 65280
-0.10216127 0.42692918 -0.49784261 65280
-0.10708426 0.42604393 -0.49774703 65280
-0.11229198 0.42663673 -0.49875316 65280
-0.1173645 0.42685831 -0.49901283 65280
-0.12200656 0.42687297 -0.49877855 65280
-0.12709662 0.42645884 -0.49720278 65280
-0.13231887 0.42552245 -0.49619958 65280
-0.13709497 0.42611307 -0.49657768 65280
-0.14222509 0.4266634 -0.49732322 65280
-0.14722168 0.42692918 -0.49784261 65280
-0.1522283 0.42651248 -0.49727136 65280
-0.15648672 0.42698428 -0.49693239 65280
-0.16228852 0.42559659 -0.49628606 65280
-0.16757917 0.42747444 -0.49597964 65280
-0.17244859 0.42751837 -0.49541864 65280
-0.18156731 0.4295724 -0.49530461 65280
-0.1869828 0.42920461 -0.49550018 65280
-0.19217178 0.42723393 -0.49569857 65280
-0.19794714 0.42728493 -0.49700624 65280
-0.2021375 0.42615426 -0.49768835 65280
-0.20730838 0.42676958 -0.49711844 65280
-0.2130931 0.42746711 -0.49597096 65280
-0.21732259 0.4273262 -0.49580681 65280
-0.2223945 0.42747444 -0.49597964 65280
-0.22727886 0.42752534 -0.49603909 65280
-0.23240635 0.42604047 -0.49680495 65280
-0.23740265 0.42604053 -0.49680495 65280
-0.24239892 0.4260405 -0.49680495 65280
-0.24813801 0.42746723 -0.49585766 65280
-0.25273493 0.42958307 -0.49511012 65280
-0.26285371 0.42500281 -0.49559492 65280
0.10785297 0.42216244 -0.49969757 65280
0.1022427 0.42257658 -0.49916595 65280
0.098252371 0.42237595 -0.49913105 65280
0.092979126 0.42232811 -0.49934524 65280
0.087990612 0.42238295 -0.49941045 65280
0.083011188 0.42249256 -0.4995409 65280
0.077602193 0.4225474 -0.49960613 65280
0.073016621 0.4225474 -0.49960613 65280
0.067925185 0.42162901 -0.49915057 65280
0.062928908 0.42162901 -0.49915057 65280
0.05795249 0.42177522 -0.49932456 65280
0.053172041 0.42222822 -0.49977586 65280
0.047835976 0.42222822 -0.49977586 65280
0.043293394 0.42265806 -0.49946642 65280
0.037947487 0.42162904 -0.49915057 65280
0.032692127 0.42265806 -0.49946642 65280
0.0081188753 0.42224678 -0.49967158 65280
0.0029729886 0.4215557 -0.49906379 65280
-0.0024383576 0.42295337 -0.49819481 65280
-0.0061846902 0.42302686 -0.4982816 65280
-0.012002801 0.42118976 -0.49862921 65280
-0.016993869 0.42118973 -0.49862915 65280
-0.021980818 0.42111635 -0.49854234 65280
-0.026952803 0.42082345 -0.49819475 65280
-0.031961795 0.42111635 -0.49854234 65280
-0.036964864 0.42126304 -0.49871594 65280
-0.041956227 0.4212631 -0.498716 65280
-0.047739558 0.42245278 -0.49901938 65280
-0.051702909 0.42228162 -0.49901938 65280
-0.05692241 0.42118976 -0.49862921 65280
-0.062340684 0.42273331 -0.49793431 65280
-0.066764727 0.42030874 -0.49758753 65280
-0.071833879 0.42082271 -0.49819514 65280
-0.076946944 0.42299032 -0.49823812 65280
-0.081941918 0.42299029 -0.49823809 65280
-0.086792298 0.4208222 -0.49819544 65280
-0.091666356 0.42290729 -0.49782604 65280
-0.096876249 0.42276984 -0.49797776 65280
-0.10186861 0.42276984 -0.49797779 65280
-0.10709884 0.42077836 -0.49839488 65280
-0.11209816 0.42162049 -0.49882478 65280
-0.11726177 0.4222599 -0.49935451 65280
-0.12312113 0.42289141 -0.49812078 65280
-0.12774548 0.42008215 -0.49706629 65280
-0.14249031 0.42085898 -0.49823874 65280
-0.14725728 0.42289096 -0.49812102 65280
-0.15291508 0.42087343 -0.49800459 65280
-0.15813129 0.42045492 -0.49776149 65280
-0.16305703 0.42030874 -0.49758753 65280
-0.16803767 0.42030874 -0.49758753 65280
-0.17791879 0.42482889 -0.49570325 65280
-0.18167266 0.42066973 -0.49550796 65280
-0.18829611 0.42066973 -0.49550796 65280
-0.19282809 0.42021739 -0.49597496 65280
-0.19778448 0.42001608 -0.49723974 65280
-0.20300837 0.42052954 -0.49784759 65280
-0.20795503 0.42045596 -0.49776101 65280
-0.21769226 0.42001557 -0.49724007 65280
-0.22282468 0.42030874 -0.49758753 65280
-0.22780532 0.42030874 -0.49758753 65280
-0.23274504 0.42023534 -0.49750069 65280
-0.23776658 0.42030874 -0.49758753 65280
-0.24274723 0.42030874 -0.49758753 65280
-0.25270787 0.42470688 -0.49524903 65280
-0.26212013 0.42015952 -0.49615672 65280
0.10255903 0.41583872 -0.49983841 65280
0.097511433 0.41554868 -0.49948934 65280
0.092582755 0.41576618 -0.49975115 65280
0.0029624149 0.41562125 -0.49957651 65280
-0.0020143311 0.41547632 -0.49940187 65280
-0.0069927745 0.41562122 -0.49957651 65280
-0.011970866 0.41569382 -0.49966383 65280
-0.016937347 0.41540372 -0.49931464 65280
-0.021654477 0.41542661 -0.49861941 65280
-0.026849158 0.41628361 -0.49784011 65280
-0.032230724 0.41591808 -0.49803445 65280
-0.036813315 0.41588035 -0.49862075 65280
-0.041788194 0.41518575 -0.499053 65280
-0.046760716 0.41518575 -0.49905306 65280
-0.052355882 0.41522437 -0.49932995 65280
-0.057798021 0.41511291 -0.49896589 65280
-0.062681198 0.41553372 -0.49852195 65280
-0.067914635 0.41540638 -0.49830654 65280
-0.072568521 0.41561389 -0.4988434 65280
-0.077888533 0.41565928 -0.49930468 65280
-0.082754664 0.41562152 -0.49957645 65280
-0.087866992 0.41536087 -0.49901032 65280
-0.093148954 0.41511267 -0.4989661 65280
-0.09810289 0.41504008 -0.49887884 65280
-0.10289281 0.41533181 -0.49891248 65280
-0.10827895 0.41533187 -0.49891254 65280
-0.11294734 0.41574091 -0.49940276 65280
-0.11826806 0.41549599 -0.49910831 65280
-0.12252316 0.41608196 -0.49823043 65280
-0.13294138 0.41957548 -0.496719 65280
-0.13792782 0.41742748 -0.49793971 65280
-0.14283474 0.41504008 -0.49887884 65280
-0.14780495 0.41504005 -0.49887878 65280
-0.15273465 0.41566181 -0.49835947 65280
-0.15751736 0.4151682 -0.49871629 65280
-0.1626302 0.41555259 -0.49822879 65280
-0.16726661 0.41569877 -0.49815106 65280
-0.1718578 0.41803968 -0.49740973 65280
-0.17815112 0.41832191 -0.49633157 65280
-0.18224367 0.41765979 -0.49516669 65280
-0.18676844 0.41775417 -0.49527839 65280
-0.19164428 0.41728815 -0.49589014 65280
-0.19905925 0.41628361 -0.49784011 65280
-0.20270213 0.41569877 -0.49815106 65280
-0.20733857 0.41555259 -0.49822879 65280
-0.21249178 0.41774753 -0.49769092 65280
-0.21727377 0.41555259 -0.49822879 65280
-0.22235802 0.41504005 -0.49887878 65280
-0.22740775 0.41518527 -0.49905333 65280
-0.23204413 0.41542661 -0.49861941 65280
-0.23714417 0.41555259 -0.49822879 65280
-0.24211176 0.41555259 -0.49822879 65280
-0.24710804 0.4177838 -0.49760872 65280
-0.25258499 0.41840386 -0.49622732 65280
-0.25763881 0.41851321 -0.49608827 65280
-0.26239622 0.41708773 -0.49627993 65280
-0.022655195 0.41238302 -0.49821514 65280
-0.026785731 0.41311291 -0.49782714 65280
-0.031405933 0.41290182 -0.49782601 65280
-0.036707986 0.41249156 -0.49834624 65280
-0.048261147 0.41019574 -0.49937823 65280
-0.053217009 0.41019574 -0.49937823 65280
-0.05817287 0.41019574 -0.49937823 65280
-0.064005196 0.41270849 -0.49860841 65280
-0.068138331 0.41270849 -0.49860841 65280
-0.073098108 0.41270849 -0.49860841 65280
-0.076404631 0.41270849 -0.49860841 65280
-0.082952194 0.41019574 -0.49937823 65280
-0.087908059 0.41019574 -0.49937823 65280
-0.092863917 0.41019574 -0.49937823 65280
-0.10451002 0.41270849 -0.49860841 65280
-0.10616328 0.41270849 -0.49860841 65280
-0.11442958 0.41270849 -0.49860841 65280
-0.11608283 0.41270849 -0.49860841 65280
-0.12287118 0.4127712 -0.49766898 65280
-0.12752141 0.41373348 -0.49730825 65280
-0.13249952 0.41380608 -0.49739558 65280
-0.13592194 0.41270849 -0.49860841 65280
-0.15245453 0.41270849 -0.49860841 65280
-0.15906756 0.41270849 -0.49860841 65280
-0.16211796 0.41205758 -0.49782199 65280
-0.16768053 0.4129107 -0.49821776 65280
-0.17233011 0.41357833 -0.49743798 65280
-0.17714454 0.41379768 -0.49675506 65280
-0.1828973 0.41388053 -0.49604362 65280
-0.18796051 0.4135749 -0.49610919 65280
-0.19237989 0.41400081 -0.49678868 65280
-0.19669187 0.41357833 -0.49743798 65280
-0.20139994 0.4125852 -0.49782452 65280
-0.2069041 0.41249156 -0.49834624 65280
-0.21197182 0.41270849 -0.49860841 65280
-0.2169316 0.41270849 -0.49860841 65280
-0.22254169 0.41019568 -0.49937811 65280
-0.22743706 0.41008794 -0.49924663 65280
-0.23263755 0.41270849 -0.49860841 65280
-0.2367707 0.41270849 -0.49860841 65280
-0.24173047 0.41270849 -0.49860841 65280
-0.24828717 0.41344965 -0.49805248 65280
-0.25299224 0.41366065 -0.49722114 65280
-0.25764939 0.41369715 -0.49695012 65280
-0.0020053617 0.40891123 -0.49981838 65280
-0.016667347 0.40964887 -0.49966893 65280
-0.02186298 0.4073813 -0.49898702 65280
-0.027326085 0.4072023 -0.49815196 65280
-0.033192575 0.40726864 -0.49813557 65280
-0.038356625 0.40744549 -0.49904725 65280
-0.043282926 0.40997952 -0.49911559 65280
-0.063094646 0.40997988 -0.49911541 65280
-0.067677736 0.40771085 -0.49857587 65280
-0.072799832 0.407758 -0.49831486 65280
-0.077940382 0.40754986 -0.49837834 65280
-0.082624838 0.40567189 -0.49895215 65280
-0.087749474 0.40504715 -0.4991428 65280
-0.09774258 0.40987137 -0.49898431 65280
-0.10240521 0.40740544 -0.49899778 65280
-0.1073914 0.40744904 -0.49857348 65280
-0.11233161 0.40744904 -0.49857348 65280
-0.117396 0.40731663 -0.49868435 65280
-0.12237289 0.4094401 -0.49845862 65280
-0.12725294 0.40922391 -0.49819604 65280
-0.13223287 0.40722305 -0.49937111 65280
-0.13723356 0.40920314 -0.49976432 65280
-0.14242224 0.4092842 -0.49986282 65280
-0.14737001 0.40738505 -0.49940637 65280
-0.15228389 0.40750271 -0.49863935 65280
-0.15722542 0.40762359 -0.49857509 65280
-0.1624912 0.40765068 -0.49818316 65280
-0.16742945 0.40765068 -0.49818316 65280
-0.17247641 0.40729803 -0.49784482 65280
-0.17698896 0.40765828 -0.49755621 65280
-0.18367282 0.40752876 -0.49739856 65280
-0.18801457 0.40738249 -0.49772799 65280
-0.19282772 0.40744281 -0.4982937 65280
-0.19803482 0.40720049 -0.49854386 65280
-0.2026151 0.40721142 -0.49868363 65280
-0.2076461 0.40757787 -0.49863982 65280
-0.21296024 0.40740865 -0.49879724 65280
-0.21790996 0.40972567 -0.49906185 65280
-0.22252601 0.40501714 -0.49942613 65280
-0.2272175 0.40512735 -0.49924168 65280
-0.23237298 0.40761685 -0.49868652 65280
-0.23748383 0.40744904 -0.49857348 65280
-0.24255219 0.40766427 -0.49883652 65280
-0.24749461 0.40766388 -0.4988367 65280
-0.25240648 0.40718389 -0.49874595 65280
-0.2576164 0.40733719 -0.49789676 65280
-0.024135133 0.40221259 -0.49852633 65280
-0.028612072 0.40209502 -0.4977394 65280
-0.032720584 0.40225488 -0.49793753 65280
-0.036436785 0.40221259 -0.49852633 65280
-0.04313438 0.40494585 -0.49933818 65280
-0.048070692 0.40494582 -0.49933812 65280
-0.053006995 0.40494585 -0.49933818 65280
-0.057943303 0.40494585 -0.49933818 65280
-0.063484609 0.40358961 -0.49878517 65280
-0.067864522 0.40240818 -0.49774271 65280
-0.072463982 0.40261695 -0.49774501 65280
-0.076967552 0.40202409 -0.49726748 65280
-0.082320169 0.40199941 -0.4982622 65280
-0.085643388 0.40221259 -0.49852633 65280
-0.092497453 0.40494588 -0.49933824 65280
-0.0974169 0.40487456 -0.49925026 65280
-0.10368581 0.40221259 -0.49852633 65280
-0.10696626 0.40221259 -0.49852633 65280
-0.11188691 0.40221259 -0.49852633 65280
-0.11598746 0.40221259 -0.49852633 65280
-0.12209409 0.40487456 -0.49925026 65280
-0.12705159 0.40494585 -0.49933818 65280
-0.14961198 0.40221259 -0.49852633 65280
-0.15264934 0.40157312 -0.49773377 65280
-0.15803497 0.40209502 -0.4977394 65280
-0.16260438 0.40261695 -0.49774501 65280
-0.16752113 0.40261695 -0.49774501 65280
-0.17216353 0.40197641 -0.49695313 65280
-0.17738329 0.40275949 -0.49696133 65280
-0.18188511 0.40275955 -0.49696144 65280
-0.1866298 0.40193459 -0.49754158 65280
-0.19215669 0.40199941 -0.49826214 65280
-0.19635825 0.40221259 -0.49852633 65280
-0.20291913 0.40221259 -0.49852633 65280
-0.20701969 0.40221259 -0.49852633 65280
-0.21112023 0.40221259 -0.49852633 65280
-0.21755056 0.40494585 -0.49933818 65280
-0.22916266 0.40221259 -0.49852633 65280
-0.23289235 0.40157312 -0.49773377 65280
-0.2378052 0.40157312 -0.49773377 65280
-0.24297656 0.40199941 -0.49826214 65280
-0.24720508 0.40221259 -0.49852633 65280
-0.25376594 0.40221259 -0.49852633 65280
-0.25786605 0.40227985 -0.49758449 65280
-0.022664903 0.39826256 -0.49897927 65280
-0.028105713 0.39748394 -0.49776876 65280
-0.033016644 0.39762473 -0.49794558 65280
-0.037983708 0.39833009 -0.49882883 65280
-0.042929307 0.3986828 -0.49927059 65280
-0.04786754 0.39889365 -0.49953604 65280
-0.052764028 0.39875311 -0.49935907 65280
-0.057657328 0.3986125 -0.49918208 65280
-0.062458292 0.39790714 -0.49829879 65280
