# .PCD v0.7 - Point Cloud Data file format
VERSION 0.7
FIELDS x y z rgba
SIZE 4 4 4 4
TYPE F F F U
COUNT 1 1 1 1
WIDTH 1129
HEIGHT 1
VIEWPOINT 0 0 0 1 0 0 0
POINTS 1129
DATA ascii
-0.024838999 -0.47405314 0.49515775 8355584
-0.015135986 -0.47411439 0.49467963 8355584
-0.0051106429 -0.47393131 0.4944126 8355584
0.0047748787 -0.47388995 0.49467281 8355584
0.014906254 -0.47412366 0.49436301 8355584
0.025318284 -0.47399855 0.4941158 8355584
0.034747835 -0.47388384 0.4944036 8355584
0.044551078 -0.47392279 0.4944399 8355584
0.054875523 -0.47477034 0.49385673 8355584
0.065040171 -0.47507188 0.49348271 8355584
0.075302303 -0.47440401 0.49387547 8355584
0.085213766 -0.47397298 0.49381399 8355584
0.094624996 -0.47467169 0.49387771 8355584
0.10475811 -0.47350302 0.49444374 5614080
0.11489674 -0.47489661 0.49389511 8355584
0.12541229 -0.47388408 0.49406385 5614080
0.13542905 -0.47393534 0.49526447 65280
0.14514241 -0.47428605 0.49343419 5614080
0.15503317 -0.47373644 0.49390462 5614080
0.16479854 -0.47390747 0.4937292 5614080
0.17495459 -0.47328454 0.49557224 65280
0.18517037 -0.47386253 0.49379018 5614080
0.19474368 -0.47426167 0.4931384 5614080
0.20460784 -0.47318405 0.49574256 65280
0.21527989 -0.47300449 0.49578768 65280
0.22488463 -0.47507969 0.49259198 4177664
0.23396802 -0.47431326 0.49215165 5614080
0.24531312 -0.47392774 0.4938606 5614080
0.25480431 -0.47412077 0.49377367 5614080
0.26489046 -0.47408471 0.49324343 5614080
0.27513009 -0.47510004 0.49292696 4177664
0.28503129 -0.47450081 0.49192536 5614080
0.29459995 -0.47443724 0.49241507 65280
0.30522817 -0.47511595 0.49268818 4177664
0.31261235 -0.47535163 0.49285072 8355584
0.32501701 -0.47403699 0.49216273 16711680
0.33530134 -0.47379732 0.49260816 16711680
0.34265643 -0.47323734 0.49227068 16711680
-0.2040935 -0.46504846 0.49378693 16711680
-0.19351149 -0.46557152 0.49592111 11162880
-0.18451962 -0.46490553 0.4943766 16711680
-0.17523926 -0.46506846 0.49529308 16711680
-0.16678399 -0.46481976 0.49461526 16711680
-0.15461054 -0.46414304 0.49627617 8355584
-0.14508592 -0.46386719 0.49596629 8355584
-0.13455629 -0.46487999 0.49513555 11162880
-0.12468401 -0.46544755 0.49203387 16711680
-0.11567384 -0.46521077 0.49661544 5614080
-0.10558541 -0.46435833 0.49522266 8355584
-0.094767787 -0.46359405 0.49513784 11162880
-0.085112467 -0.46289736 0.49202719 16711680
-0.075006589 -0.4630543 0.49193347 16711680
-0.065713651 -0.46526623 0.49660978 5614080
-0.054173507 -0.46439022 0.49497575 8355584
-0.045094427 -0.46439421 0.49492374 8355584
-0.03507166 -0.46539241 0.49626914 6723840
-0.024886783 -0.4646579 0.49603075 8355584
-0.01445118 -0.46463367 0.49516982 8355584
-0.0059876386 -0.46481282 0.4952088 8355584
0.0047431435 -0.46432596 0.49616435 8355584
0.015619071 -0.46436316 0.49494404 8355584
0.024526237 -0.46452481 0.49521837 8355584
0.035418063 -0.46418652 0.49581656 8355584
0.045142882 -0.46477619 0.4958027 6723840
0.054984793 -0.46595022 0.4952842 5614080
0.06471166 -0.46550441 0.49541518 5614080
0.075071119 -0.46542594 0.49543646 5614080
0.084543251 -0.46422723 0.49488255 8355584
0.095284469 -0.4642401 0.4949545 8355584
0.10502771 -0.46394473 0.49421346 8355584
0.11500283 -0.46573254 0.49503729 5614080
0.1249132 -0.46446499 0.49407399 8355584
0.13501686 -0.4640238 0.49369392 8355584
0.14484984 -0.46385428 0.4936834 8355584
0.15497735 -0.463016 0.49370441 11162880
0.16512495 -0.46438724 0.49472278 8355584
0.17503127 -0.46425325 0.49408311 8355584
0.18484163 -0.4629322 0.4933891 11162880
0.19541645 -0.4630675 0.49364114 11162880
0.20493121 -0.46403739 0.49290353 8355584
0.21483143 -0.46296978 0.49297428 11162880
0.22495759 -0.462598 0.49297288 11162880
0.23505616 -0.46245146 0.49286509 11162880
0.24480748 -0.46279356 0.49336386 11162880
0.25535318 -0.46339765 0.49390885 11162880
0.26525185 -0.46300301 0.49345866 11162880
0.27487031 -0.46302477 0.4931623 11162880
0.28476146 -0.46297941 0.49324581 11162880
0.29503059 -0.46251914 0.49247897 11162880
0.30477628 -0.46275297 0.49286941 11162880
0.31508848 -0.46280387 0.49150378 16711680
0.32485849 -0.4631187 0.49175519 16711680
0.33499548 -0.46358091 0.49245027 16711680
0.34383956 -0.46343705 0.49275342 16711680
-0.20440154 -0.45135057 0.49283692 16711680
-0.19487032 -0.45104671 0.49274287 16711680
-0.18504372 -0.4509064 0.49258956 16711680
-0.17502172 -0.45062065 0.49319467 16711680
-0.16474827 -0.45073539 0.49302503 16711680
-0.15504928 -0.45176122 0.49618393 8355584
-0.14503168 -0.4509955 0.49227503 16711680
-0.13524508 -0.45094854 0.49284604 16711680
-0.12539734 -0.45611653 0.49293548 16711680
-0.11485988 -0.4548963 0.49513945 11162880
-0.10466252 -0.45217264 0.49663073 8355584
-0.094905898 -0.45092481 0.49235228 16711680
-0.084945694 -0.45109218 0.49155131 16711680
-0.075008318 -0.45097536 0.49217626 16711680
-0.065161057 -0.45467377 0.49462137 11162880
-0.054973938 -0.45236322 0.49634761 8355584
-0.044865441 -0.4517892 0.49575895 8355584
-0.035145428 -0.45087335 0.49219009 16711680
-0.024861775 -0.45218694 0.49563846 8355584
-0.014919654 -0.45165902 0.49516183 8355584
-0.0051473691 -0.45179555 0.49576753 8355584
0.0050269142 -0.45110822 0.49162272 16711680
0.014738714 -0.45163083 0.49578771 8355584
0.024764946 -0.45152378 0.49562663 8355584
0.035209738 -0.45189089 0.49527791 8355584
0.04516831 -0.45138243 0.49542886 8355584
0.055145353 -0.45464227 0.49436405 11162880
0.064915217 -0.4542664 0.49423051 11162880
0.074897885 -0.4545261 0.49383247 11162880
0.084540986 -0.45199016 0.49548966 8355584
0.094988853 -0.45181507 0.495408 8355584
0.10492092 -0.45451319 0.4935309 11162880
0.1150933 -0.45457157 0.49335226 11162880
0.12514021 -0.45421007 0.49385497 11162880
0.13484944 -0.4542439 0.49342 11162880
0.14538418 -0.45419729 0.49317113 11162880
0.15517557 -0.45118338 0.4952988 8355584
0.16482019 -0.45393196 0.49429798 11162880
0.17470802 -0.45431057 0.49360338 11162880
0.1846545 -0.45228389 0.49401292 8355584
0.1943467 -0.45235807 0.49372113 8355584
0.2048064 -0.45505834 0.49258724 11162880
0.21532744 -0.45282924 0.49352866 8355584
0.22460565 -0.4526394 0.49318779 8355584
0.23543084 -0.45259178 0.49314994 8355584
0.24559245 -0.45250651 0.49381113 8355584
0.25529823 -0.4517127 0.49422634 8355584
0.26470149 -0.4520936 0.4940933 8355584
0.27470136 -0.45265719 0.49360383 8355584
0.28470859 -0.45283902 0.49320519 8355584
0.29513621 -0.45293152 0.493581 8355584
0.30393177 -0.45284921 0.4929899 8355584
0.3248421 -0.4520359 0.49009088 16711680
0.33493298 -0.45108294 0.49197194 16711680
0.34484658 -0.45126435 0.49277434 16711680
-0.32353422 -0.44824123 0.49245682 65280
-0.21039625 -0.4458091 0.49485227 16711680
-0.20512663 -0.44545865 0.49424121 16711680
-0.19822341 -0.44534183 0.49403754 16711680
-0.18305153 -0.44440955 0.49240926 16711680
-0.17534515 -0.44440955 0.49240926 16711680
-0.16483642 -0.44440958 0.49240926 16711680
-0.1354046 -0.44503063 0.49330577 16711680
-0.12432532 -0.44629079 0.49513814 16711680
-0.11538814 -0.44615525 0.49528793 16711680
-0.10634211 -0.4456872 0.49447283 16711680
-0.094077662 -0.44440955 0.49240926 16711680
-0.085530564 -0.44440955 0.49240926 16711680
-0.076967701 -0.44497526 0.49612391 8355584
-0.064489305 -0.44559735 0.4968909 8355584
-0.055162184 -0.4458487 0.4970971 8355584
-0.04455331 -0.44557258 0.49925542 65280
-0.033321008 -0.44463575 0.49594742 8355584
-0.02407882 -0.44389582 0.49085578 16711680
-0.016543679 -0.44460747 0.49544394 8355584
-0.005314942 -0.44528395 0.49686444 8355584
0.0047043711 -0.44440955 0.49240926 16711680
0.013361675 -0.44501185 0.49533239 11162880
0.026723232 -0.44479749 0.49558789 8355584
0.034684539 -0.44515324 0.4951753 8355584
0.047216445 -0.44563234 0.49560958 8355584
0.055456396 -0.44600779 0.49577212 8355584
0.065230273 -0.4458442 0.49562708 8355584
0.075064406 -0.44567353 0.49547973 8355584
0.085471638 -0.44571239 0.49582118 8355584
0.094390213 -0.4463892 0.49563682 8355584
0.10602676 -0.44559705 0.49466068 8355584
0.11370596 -0.44554746 0.49466127 8355584
0.12518597 -0.44520742 0.49466562 8355584
0.13527828 -0.44559711 0.49466068 8355584
0.14456406 -0.44520062 0.49428752 8355584
0.15177897 -0.44526261 0.49481863 8355584
0.16690719 -0.44327962 0.49790749 65280
0.17700301 -0.44562048 0.4945195 8355584
0.18568052 -0.44629401 0.49426442 8355584
0.19549721 -0.44658473 0.49391899 8355584
0.2051003 -0.44910845 0.49459109 65280
0.21572362 -0.4467198 0.49378058 8355584
0.22520016 -0.44668061 0.4936772 8355584
0.23439689 -0.44413027 0.49320713 5614080
0.24520016 -0.44638658 0.49335998 8355584
0.25421 -0.44557667 0.49382117 8355584
0.26544669 -0.44525415 0.49394763 8355584
0.2754007 -0.44602817 0.49343783 8355584
0.28468835 -0.44639787 0.49290919 8355584
0.29413134 -0.44619045 0.4935731 11162880
0.30354089 -0.44615698 0.49318326 11162880
0.31481788 -0.44362891 0.49043295 16711680
0.32409254 -0.44430304 0.49096838 16711680
0.33257663 -0.44440955 0.49240926 16711680
0.34503287 -0.44534177 0.49403754 16711680
0.35079175 -0.44626412 0.49339539 16711680
-0.32277107 -0.43825954 0.49413988 65280
-0.21181573 -0.43746531 0.49416748 16711680
-0.2049095 -0.43926078 0.49681979 8355584
-0.19505477 -0.43618408 0.49607733 11162880
-0.185129 -0.43300557 0.49638787 11162880
-0.17485166 -0.43433309 0.49505123 16711680
-0.16482203 -0.43850368 0.49392751 16711680
-0.15500729 -0.43865454 0.49431649 16711680
-0.1451053 -0.43875629 0.49403849 16711680
-0.13499896 -0.43912947 0.49338397 16711680
-0.1248102 -0.43498713 0.49656326 8355584
-0.11518395 -0.43877608 0.49703902 8355584
-0.10487358 -0.43886673 0.49678469 8355584
-0.095078997 -0.43577957 0.49772027 5614080
-0.084894165 -0.43451899 0.49644423 8355584
-0.074738853 -0.43621102 0.49724433 5614080
-0.064772457 -0.43930033 0.49659336 8355584
-0.05470508 -0.43908355 0.4964084 8355584
-0.044619542 -0.43926671 0.49596685 8355584
-0.034847956 -0.43897364 0.49611768 8355584
-0.025400056 -0.43591022 0.49700674 5614080
-0.015348974 -0.43611249 0.49685463 5614080
-0.0054777446 -0.43628362 0.4973034 5614080
0.004677162 -0.43590418 0.49734065 5614080
0.014722484 -0.43614897 0.4968926 5614080
0.024698056 -0.43614814 0.49645123 5614080
0.034959655 -0.43596652 0.4964622 5614080
0.044869859 -0.43651721 0.49606052 5614080
0.055195447 -0.43631497 0.49644747 5614080
0.065102682 -0.43902147 0.49568367 8355584
0.074618064 -0.43602112 0.49547076 5614080
0.085279047 -0.4358038 0.49593732 5614080
0.094886571 -0.43888518 0.49509728 8355584
0.104343 -0.43577698 0.49549353 5614080
0.11499926 -0.43605876 0.49515608 5614080
0.12479216 -0.43627718 0.49488473 5614080
0.13551073 -0.43597487 0.49497738 5614080
0.14499032 -0.43585089 0.49567568 5614080
0.15509568 -0.43634453 0.4960126 5614080
0.16502708 -0.4348233 0.4957974 8355584
0.17436379 -0.43627048 0.49534944 5614080
0.18492343 -0.43701497 0.49432221 5614080
0.1950203 -0.43675944 0.49448156 5614080
0.20424403 -0.43635276 0.49494767 5614080
0.21509893 -0.43701807 0.49440312 5614080
0.22519577 -0.43604463 0.49393296 4177664
0.23513348 -0.4358511 0.49293873 8355584
0.24532469 -0.43635508 0.49362737 4177664
0.2551083 -0.43618631 0.49492371 5614080
0.26515877 -0.43611053 0.49471733 5614080
0.2750442 -0.43653354 0.49394441 5614080
0.28497157 -0.43652454 0.49377108 5614080
0.29457375 -0.43709245 0.49402073 5614080
0.30210364 -0.43666959 0.49362528 5614080
0.31465518 -0.43732375 0.49144843 16711680
0.32534656 -0.43828613 0.49186459 16711680
0.33523911 -0.43861425 0.49331453 16711680
0.34506038 -0.43877548 0.49423733 16711680
0.35219097 -0.43796539 0.49469492 16711680
-0.32183573 -0.42595881 0.49297881 65280
-0.21340865 -0.42579883 0.49479488 16711680
-0.20510875 -0.42648333 0.49751326 8355584
-0.19479248 -0.42665297 0.49811357 8355584
-0.1847209 -0.4243983 0.4962602 16711680
-0.17518893 -0.42453027 0.49621388 16711680
-0.16501683 -0.42672333 0.49491021 16711680
-0.15516831 -0.42648143 0.49434817 16711680
-0.14491074 -0.42683965 0.49501395 16711680
-0.13524985 -0.42704481 0.49476722 16711680
-0.124906 -0.42594746 0.49568656 11162880
-0.11509626 -0.42661491 0.4970789 8355584
-0.10493898 -0.42761174 0.49650404 11162880
-0.096005164 -0.42609465 0.4937281 16711680
-0.084461868 -0.42526302 0.49535576 11162880
-0.075117961 -0.4252874 0.49562654 11162880
-0.065478504 -0.42659825 0.49643874 8355584
-0.055354711 -0.42668271 0.49575585 8355584
-0.045432597 -0.42586344 0.49658126 6723840
-0.035897143 -0.42622519 0.49630746 8355584
-0.024412617 -0.4252764 0.49411795 11162880
-0.014414041 -0.42522478 0.49393931 11162880
-0.0060228165 -0.42520523 0.49413535 11162880
0.0066563152 -0.4258185 0.49345601 16711680
0.015698478 -0.42596814 0.49526647 11162880
0.024925457 -0.42598104 0.49506804 11162880
0.035399336 -0.42587972 0.4950746 11162880
0.044189215 -0.42583776 0.494645 11162880
0.054599363 -0.42578992 0.49475828 11162880
0.065875456 -0.42626363 0.49491957 8355584
0.074227601 -0.42552677 0.49347067 11162880
0.08576528 -0.42543337 0.49405384 11162880
0.09376999 -0.42569882 0.49595857 6723840
0.10605871 -0.42591032 0.49451172 11162880
0.11531865 -0.42509493 0.49369371 12533504
0.12496062 -0.42569962 0.49293861 11162880
0.13544951 -0.42625752 0.49430344 11162880
0.14504938 -0.426222 0.49541736 11162880
0.15467577 -0.42629552 0.49518907 11162880
0.16538268 -0.42587879 0.49494961 11162880
0.17533062 -0.42645884 0.49456882 11162880
0.18445234 -0.42612854 0.49368814 11162880
0.19572914 -0.42629638 0.49398026 11162880
0.20533787 -0.42615631 0.49405447 11162880
0.21609955 -0.42612192 0.49400899 11162880
0.22531073 -0.42640629 0.49399689 11162880
0.23512278 -0.42611989 0.49374965 11162880
0.24463995 -0.42632484 0.49380419 11162880
0.25490487 -0.42719454 0.49393836 8355584
0.26503938 -0.42736244 0.49403334 8355584
0.27550671 -0.42585263 0.4931654 11162880
0.28506339 -0.42600426 0.49283203 11162880
0.29430941 -0.42605588 0.49292699 11162880
0.30619764 -0.4259243 0.49337941 16711680
0.3149626 -0.42497191 0.49280265 16711680
0.32496893 -0.42534828 0.49194387 16711680
0.3350924 -0.42489627 0.49168968 16711680
0.34510061 -0.424752 0.4928571 16711680
0.35365933 -0.42625809 0.49433532 16711680
-0.32196176 -0.4143883 0.49416658 65280
-0.22076088 -0.41225904 0.49864545 16711680
-0.21475358 -0.41315573 0.49793348 16711680
-0.20528622 -0.41374934 0.49910113 16711680
-0.19536683 -0.41381544 0.49894786 16711680
-0.18528765 -0.41284883 0.4978258 16711680
-0.1751257 -0.41507626 0.49741969 16711680
-0.16505834 -0.4147588 0.49636933 16711680
-0.15487459 -0.4157545 0.4955878 16711680
-0.14522126 -0.41536713 0.49630311 16711680
-0.13477802 -0.4163937 0.49788967 8355584
-0.12497697 -0.41669321 0.49757814 8355584
-0.11489846 -0.41593659 0.49551472 16711680
-0.10503536 -0.41582689 0.49531087 16711680
-0.095165446 -0.41618329 0.49461612 16711680
-0.084632277 -0.41475213 0.49783853 5614080
-0.07509388 -0.41716903 0.49705109 8355584
-0.065063596 -0.41716325 0.49719048 8355584
-0.05514019 -0.41740176 0.49681923 8355584
-0.045022946 -0.41640192 0.49417636 16711680
-0.035220847 -0.41727006 0.49696106 8355584
-0.025299611 -0.41744387 0.49583143 8355584
-0.015292997 -0.41733572 0.49624071 8355584
-0.0052497564 -0.41711485 0.49621749 8355584
0.0047181109 -0.4174965 0.49661809 8355584
0.014720404 -0.41701412 0.49607837 8355584
0.024714595 -0.416682 0.49562192 8355584
0.034743115 -0.41700441 0.4959951 8355584
0.044770036 -0.4172084 0.49600875 8355584
0.05492736 -0.41689 0.49641863 8355584
0.064914659 -0.41711295 0.49604508 8355584
0.075403571 -0.41667753 0.49553341 8355584
0.085215926 -0.41712043 0.49578762 8355584
0.095192224 -0.41736108 0.49640206 8355584
0.10508014 -0.41700688 0.49587893 8355584
0.1151517 -0.41658795 0.49548745 8355584
0.1250589 -0.41626742 0.49489295 8355584
0.13511038 -0.4168047 0.4953922 8355584
0.14504161 -0.41653073 0.49667144 8355584
0.15500149 -0.4168545 0.49624544 8355584
0.16481522 -0.41704565 0.4952758 8355584
0.17496806 -0.41643786 0.49526799 8355584
0.18505856 -0.4165886 0.4949953 8355584
0.19503011 -0.41690987 0.49549815 8355584
0.20518515 -0.41647738 0.49540907 8355584
0.21515721 -0.41678536 0.49529159 8355584
0.22505233 -0.41674024 0.49586576 8355584
0.23491111 -0.4167527 0.49560732 8355584
0.24503076 -0.41683525 0.49571288 8355584
0.25487259 -0.41667363 0.49502933 8355584
0.26509237 -0.41690385 0.49505067 8355584
0.27504015 -0.41647246 0.49500382 8355584
0.28486866 -0.41613376 0.49451828 8355584
0.29452202 -0.41654974 0.49453232 8355584
0.30491078 -0.4160248 0.49488232 16711680
0.31493258 -0.4161461 0.4944075 16711680
0.3249867 -0.41535458 0.49306276 16711680
0.33446968 -0.41562137 0.49155739 16711680
0.34564066 -0.41625845 0.49232253 16711680
0.35486653 -0.41646829 0.49368611 16711680
0.3602787 -0.411111 0.49395785 16711680
-0.32355446 -0.40307051 0.49297357 65280
-0.22194223 -0.40173364 0.49889532 16711680
-0.21517698 -0.40257496 0.49872389 16711680
-0.20501132 -0.40334177 0.49820307 16711680
-0.19469608 -0.4034124 0.49760357 16711680
-0.18503705 -0.40292794 0.4982824 16711680
-0.1755143 -0.40666401 0.49762103 16711680
-0.16419598 -0.40622342 0.49604124 16711680
-0.1557571 -0.40576479 0.49594271 16711680
-0.14507641 -0.40388077 0.49681833 16711680
-0.1348778 -0.40381157 0.49658296 16711680
-0.12353662 -0.40629107 0.49622729 16711680
-0.11509894 -0.40587491 0.49683088 8355584
-0.10474752 -0.4057048 0.49498492 8355584
-0.094649047 -0.4056896 0.4951013 8355584
-0.085126989 -0.40527555 0.49547601 11162880
-0.0759831 -0.40406176 0.49530435 11162880
-0.06508182 -0.40539923 0.49569139 16711680
-0.054952268 -0.4053092 0.49542087 16711680
-0.045100782 -0.40545553 0.49540564 16711680
-0.034777738 -0.40523663 0.49526367 16711680
-0.024791811 -0.40442079 0.49412486 16711680
-0.01481498 -0.4048748 0.49453703 16711680
-0.0049129315 -0.40543529 0.4952049 16711680
0.0046373331 -0.40576532 0.49642995 11162880
0.015390893 -0.4049401 0.49702781 8355584
0.025410745 -0.40490782 0.49704903 8355584
0.034167454 -0.40479884 0.49694926 8355584
0.045279864 -0.40589812 0.49662754 11162880
0.055359192 -0.40506011 0.4951694 16711680
0.065504968 -0.40549219 0.49609342 11162880
0.075226665 -0.40501413 0.49620882 8355584
0.084695429 -0.40497476 0.49590924 8355584
0.094541915 -0.40520874 0.49686223 8355584
0.10422415 -0.40486655 0.49680215 8355584
0.11493949 -0.40558425 0.49626181 11162880
0.12630199 -0.40493095 0.49671182 8355584
0.13512594 -0.40486002 0.49625808 8355584
0.14513698 -0.40473193 0.49660057 8355584
0.15512253 -0.40475112 0.49650854 8355584
0.16571935 -0.40510377 0.49616712 8355584
0.17499207 -0.40561968 0.49578112 8355584
0.18503585 -0.40556642 0.49503884 8355584
0.1948607 -0.40504718 0.49559978 8355584
0.20547046 -0.40452674 0.49614817 8355584
0.21510635 -0.40468919 0.4957692 8355584
0.22492078 -0.40466845 0.49568322 8355584
0.23491301 -0.405031 0.49621603 8355584
0.24493241 -0.40536243 0.49625283 8355584
0.25511399 -0.40499762 0.49622548 8355584
0.26500753 -0.40508255 0.49590179 8355584
0.27487516 -0.40489966 0.49592245 8355584
0.28500909 -0.40463808 0.49561083 8355584
0.29390958 -0.40565795 0.49557081 8355584
0.3037715 -0.40621465 0.49616092 16711680
0.31593281 -0.40588337 0.49581873 16711680
0.32525867 -0.40531677 0.49504301 16711680
0.33480239 -0.40454328 0.49358848 16711680
0.34510195 -0.40436301 0.49367908 16711680
0.35514975 -0.40483981 0.4946667 16711680
0.36163372 -0.40462393 0.49497452 16711680
-0.32701063 -0.39568335 0.49698231 65280
-0.22378148 -0.39516219 0.49939206 16711680
-0.21465187 -0.39505854 0.4995797 16711680
-0.20509832 -0.39515889 0.49884018 16711680
-0.19501381 -0.39515537 0.49884918 16711680
-0.18450946 -0.39455864 0.49901727 16711680
-0.17509218 -0.39449078 0.49823233 16711680
-0.16459641 -0.39387822 0.49646673 16711680
-0.1550265 -0.39320183 0.49585751 16711680
-0.14525703 -0.39306998 0.49642244 16711680
-0.13527034 -0.39413086 0.49769557 8355584
-0.12546334 -0.39572763 0.49687564 8355584
-0.11490051 -0.39444393 0.49730644 16711680
-0.1051002 -0.39420646 0.49716887 16711680
-0.094827384 -0.39401698 0.49742153 16711680
-0.084775493 -0.39297864 0.49640605 16711680
-0.076129749 -0.39429328 0.4937014 8355584
-0.065080218 -0.3963106 0.49453297 5614080
-0.056539148 -0.39501977 0.49603572 8355584
-0.04488587 -0.39318365 0.4954066 16711680
-0.035023052 -0.39369684 0.49474689 16711680
-0.025158625 -0.39387304 0.49464771 16711680
-0.015040141 -0.3938379 0.49431923 16711680
-0.0047739744 -0.39381349 0.4943758 16711680
0.0049799248 -0.39434725 0.49702632 8355584
0.014879998 -0.39413941 0.49702817 8355584
0.025133591 -0.3941974 0.49726644 8355584
0.03503976 -0.39424366 0.49772266 8355584
0.045158889 -0.39419419 0.49669242 8355584
0.055231266 -0.3940329 0.49659517 8355584
0.065060794 -0.39469936 0.49599349 8355584
0.074505553 -0.39487928 0.49507767 8355584
0.084810749 -0.39526016 0.49461955 8355584
0.094717294 -0.39574823 0.49481541 8355584
0.10471731 -0.39595687 0.49454924 8355584
0.11545595 -0.39495534 0.49491388 8355584
0.12519097 -0.39467612 0.49655426 8355584
0.1348525 -0.39437395 0.49596849 8355584
0.14488497 -0.39410871 0.49572039 8355584
0.15511185 -0.39437488 0.49584496 8355584
0.16514888 -0.39440852 0.49676943 8355584
0.17494814 -0.39370793 0.49613392 8355584
0.18466008 -0.39387149 0.4951787 8355584
0.19493356 -0.39406228 0.49660808 8355584
0.20501775 -0.39400536 0.49713063 8355584
0.21495786 -0.39383996 0.49599671 8355584
0.22490159 -0.39394873 0.49502593 8355584
0.23509756 -0.39373434 0.49544239 8355584
0.24501006 -0.39382511 0.49542916 8355584
0.25529742 -0.39398503 0.49565715 8355584
0.26503646 -0.39421809 0.49586949 8355584
0.27491972 -0.39448559 0.4954797 8355584
0.28487954 -0.39436477 0.49479568 8355584
0.29338303 -0.39453605 0.49436378 8355584
0.30502462 -0.39361578 0.49495134 16711680
0.31513506 -0.39330882 0.49584135 16711680
0.32494941 -0.39350063 0.49513391 16711680
0.33476582 -0.39383981 0.49408433 16711680
0.34497634 -0.39374682 0.4947122 16711680
0.35495225 -0.39334828 0.49527267 16711680
0.36325848 -0.39312428 0.4954178 16711680
-0.19507819 -0.38850874 0.49961475 16711680
-0.18528403 -0.38832602 0.49917105 16711680
-0.17516191 -0.38775423 0.49909374 16711680
-0.16565219 -0.38381094 0.49770954 16711680
-0.15490751 -0.38086981 0.49726269 16711680
-0.14294291 -0.3804636 0.49593514 8355584
-0.13362059 -0.38527784 0.49565992 6723840
-0.12544942 -0.38833737 0.49457753 8355584
-0.11527507 -0.38397008 0.49798214 16711680
-0.10491835 -0.38411212 0.49762419 16711680
-0.095145367 -0.38409621 0.49746031 16711680
-0.085369825 -0.3853462 0.49627888 16711680
-0.074758314 -0.38336641 0.49468485 16711680
-0.063322984 -0.38438845 0.49511659 16711680
-0.055758029 -0.38429943 0.49513653 16711680
-0.045306724 -0.38316727 0.49360654 16711680
-0.032829449 -0.38418269 0.49580896 8355584
-0.025303338 -0.38412416 0.4958083 8355584
-0.014642227 -0.38359165 0.49627426 8355584
-0.0052580647 -0.3841677 0.49621072 11162880
0.0036027571 -0.38318768 0.49753872 5614080
0.015850939 -0.38280749 0.49609366 8355584
0.024946487 -0.38395545 0.49600342 8355584
0.035858277 -0.38508543 0.49676526 11162880
0.044704713 -0.38616833 0.49643737 8355584
0.054854155 -0.38447133 0.49497452 5614080
0.064239532 -0.38522354 0.4933103 5614080
0.075222544 -0.38596055 0.49154073 8355584
0.08483132 -0.38414168 0.49096683 16711680
0.10495959 -0.3841857 0.49127588 16711680
0.11484418 -0.3845264 0.49269226 11162880
0.1243581 -0.38438487 0.49324578 8355584
0.13634473 -0.38534531 0.4934527 5614080
0.14524277 -0.38490105 0.49390331 5614080
0.15480772 -0.38390556 0.49497101 5614080
0.16493432 -0.38319036 0.49618942 8355584
0.17512208 -0.38352939 0.49710938 8355584
0.18507408 -0.38358486 0.49624968 8355584
0.19460611 -0.38407007 0.49645123 8355584
0.2050714 -0.38305005 0.49744046 5614080
0.21499403 -0.38348714 0.497141 5614080
0.22537592 -0.38446683 0.49608436 8355584
0.23483957 -0.38414264 0.49550074 8355584
0.24500479 -0.38433111 0.49460003 8355584
0.25456914 -0.38618624 0.49508616 4177664
0.2652092 -0.38424915 0.49574777 8355584
0.27506745 -0.38425165 0.49558288 8355584
0.28529909 -0.38436398 0.49468023 8355584
0.29199442 -0.3871665 0.49407932 5614080
0.3047758 -0.38526917 0.49420038 16711680
0.31378758 -0.38419503 0.49545866 16711680
0.32582396 -0.38420767 0.49598521 16711680
0.33503887 -0.3831169 0.4949809 16711680
0.34509972 -0.38575158 0.49465814 16711680
0.3552359 -0.38580653 0.49471697 16711680
0.36386332 -0.38523689 0.49389896 16711680
-0.32821012 -0.37548012 0.49476069 65280
-0.23044957 -0.37231746 0.49938008 16711680
-0.22464402 -0.37212759 0.49927911 16711680
-0.21536551 -0.37168232 0.49896136 16711680
-0.20824866 -0.3719852 0.49920341 16711680
-0.17299439 -0.37563491 0.49940467 16711680
-0.16381662 -0.37229693 0.49787888 16711680
-0.15569776 -0.3718226 0.49809763 16711680
-0.14646852 -0.37322363 0.49779299 8355584
-0.13323301 -0.37065494 0.49819401 16711680
-0.12500004 -0.37961078 0.49805304 16711680
-0.11528373 -0.3720336 0.49405161 16711680
-0.10498193 -0.3736268 0.49273285 16711680
-0.095303267 -0.37490833 0.49282965 16711680
-0.085237145 -0.37607521 0.49240467 16711680
-0.075885162 -0.3767153 0.49175182 16711680
-0.040871512 -0.37928277 0.49289045 16711680
-0.032616336 -0.37628174 0.49163464 16711680
-0.024561044 -0.37494427 0.49192587 16711680
-0.015326235 -0.37506667 0.49178126 16711680
-0.0049039782 -0.3769207 0.49471274 5614080
0.0045392457 -0.3776392 0.49416772 11162880
0.014489937 -0.37597787 0.49703145 65280
0.024437334 -0.37519968 0.4922238 8355584
0.034608103 -0.37728029 0.49391177 8355584
0.045122251 -0.37828824 0.49366185 11162880
0.053095512 -0.3780379 0.49259633 16711680
0.1583579 -0.37631106 0.49273896 11162880
0.16550387 -0.37333608 0.49424034 8355584
0.17512019 -0.37176576 0.49599579 8355584
0.18484521 -0.37108463 0.49644274 8355584
0.1949621 -0.37139109 0.49705756 8355584
0.20492139 -0.37159008 0.4976182 8355584
0.21486601 -0.37141114 0.49733499 8355584
0.22498934 -0.37170899 0.49769819 8355584
0.23488894 -0.37169045 0.49671328 8355584
0.24491367 -0.37179536 0.4959017 8355584
0.25512311 -0.37436935 0.49500513 11162880
0.26490372 -0.370978 0.49575937 8355584
0.27482802 -0.37143219 0.49650878 8355584
0.28475377 -0.37131208 0.49658883 8355584
0.29489604 -0.3755706 0.49545172 16711680
0.30488679 -0.37565476 0.49463493 16711680
0.31499982 -0.37075266 0.49530128 16711680
0.32524079 -0.37053436 0.49626741 16711680
0.33502179 -0.3712405 0.4962385 16711680
0.34506577 -0.37563145 0.49554187 16711680
0.35511142 -0.37562278 0.49586001 16711680
0.36489013 -0.37507641 0.49531561 16711680
-0.21500827 -0.36621034 0.49992254 16711680
-0.16514908 -0.36637452 0.49905148 16711680
-0.15440564 -0.36643222 0.49856505 16711680
-0.14550075 -0.36769336 0.4955126 8355584
-0.13616209 -0.36382303 0.49465129 16711680
-0.12538131 -0.36963195 0.49622163 16711680
0.16609028 -0.36302945 0.49064976 65280
0.17582606 -0.36488432 0.49572271 65280
0.18343604 -0.36289006 0.49555779 8355584
0.19543329 -0.36313736 0.49948314 65280
0.20586842 -0.36423272 0.49811736 8355584
0.21413594 -0.36438352 0.49768123 8355584
0.22550626 -0.36424357 0.49698752 8355584
0.23530729 -0.36433262 0.49647102 8355584
0.24510121 -0.36380592 0.49669155 8355584
0.25438905 -0.36318403 0.49820253 65280
0.26461107 -0.36441213 0.49621844 8355584
0.27590215 -0.36464298 0.49727362 8355584
0.28353736 -0.3646135 0.4968487 11162880
0.29400629 -0.36506337 0.49608931 16711680
0.30437726 -0.36519033 0.49688479 16711680
0.31034666 -0.36525059 0.49675509 16711680
0.32542413 -0.36525059 0.49675509 16711680
0.33597836 -0.36525059 0.49675509 16711680
0.34502482 -0.36525062 0.49675503 16711680
0.3546367 -0.36558342 0.496932 16711680
0.36085615 -0.36525059 0.49675509 16711680
0.37111861 -0.36661577 0.49542177 16711680
-0.32711321 -0.35824287 0.49326766 65280
-0.1648351 -0.35744146 0.49999282 16711680
-0.15501621 -0.35803694 0.49810806 16711680
-0.14644182 -0.3558692 0.49372435 10053120
0.17538401 -0.35966298 0.49403158 65280
0.1857654 -0.35617852 0.49561271 5614080
0.19460258 -0.35795557 0.49754506 8355584
0.20558348 -0.35812786 0.49767095 8355584
0.21483235 -0.35807362 0.49747819 8355584
0.22498767 -0.35803974 0.49667037 8355584
0.23479655 -0.35863084 0.49640298 8355584
0.24478102 -0.35782483 0.49745688 8355584
0.25520992 -0.35525939 0.49803635 11162880
0.26493073 -0.35837448 0.49668014 8355584
0.27491379 -0.35813767 0.49667931 8355584
0.28349257 -0.35809481 0.4965499 8355584
0.29519925 -0.35850134 0.49656394 16711680
0.30510953 -0.35839197 0.49712172 16711680
0.31506738 -0.35868394 0.49687812 16711680
0.32524103 -0.35870171 0.49646267 16711680
0.33504435 -0.35874864 0.49597493 16711680
0.34493822 -0.3585889 0.49704221 16711680
0.35488003 -0.35834521 0.49700215 16711680
0.36486313 -0.35905814 0.49594 16711680
0.37301251 -0.35793266 0.49588427 16711680
-0.32739526 -0.3492226 0.49984354 65280
-0.16311654 -0.34646571 0.49867466 16711680
-0.15709235 -0.34502929 0.49713546 8355584
0.18552731 -0.3455905 0.49413601 11162880
0.19449732 -0.34654528 0.49695069 8355584
0.20469266 -0.34596324 0.49771383 8355584
0.21510345 -0.34741822 0.49812445 11162880
0.22486836 -0.34691629 0.4971799 11162880
0.23492056 -0.34574267 0.49675888 8355584
0.24499923 -0.34599528 0.49787045 8355584
0.25444767 -0.34473133 0.49732593 4177664
0.26609701 -0.34459645 0.4963811 10053120
0.27503347 -0.34521788 0.49521485 8355584
0.28415826 -0.34664604 0.49647132 11162880
0.29480594 -0.34551677 0.49675533 16711680
0.30532259 -0.34504646 0.49636286 16711680
0.31514147 -0.34570748 0.49720418 16711680
0.32514554 -0.34660441 0.49770913 16711680
0.33505338 -0.34618425 0.4973405 16711680
0.34498671 -0.34597903 0.49726295 16711680
0.35509577 -0.34595114 0.497623 16711680
0.36500123 -0.34584892 0.49757591 16711680
0.37472716 -0.34585109 0.49749395 16711680
0.38036865 -0.34116358 0.4975386 16711680
-0.3277916 -0.33566093 0.49580967 65280
-0.16669942 -0.33662456 0.49674317 16711680
-0.1552304 -0.336005 0.49697247 65280
0.18508615 -0.33743432 0.49297813 11162880
0.19513506 -0.33580831 0.49647591 8355584
0.20510131 -0.33549201 0.49747998 8355584
0.21501499 -0.33591673 0.49786717 8355584
0.225159 -0.33614123 0.49759293 8355584
0.23508447 -0.33601135 0.49755535 8355584
0.24508412 -0.33578104 0.49802876 8355584
0.2548632 -0.33595183 0.49750996 8355584
0.26499841 -0.33621073 0.49743342 8355584
0.27495909 -0.3366262 0.49616623 8355584
0.28508812 -0.33570907 0.49643704 16711680
0.29500711 -0.33483258 0.49815181 16711680
0.304764 -0.33468795 0.49807414 16711680
0.31492001 -0.33499742 0.49774078 16711680
0.32478875 -0.33521071 0.49711546 16711680
0.33490646 -0.33498034 0.49773803 16711680
0.34502444 -0.33462128 0.4985598 16711680
0.35488525 -0.3348611 0.49796304 16711680
0.36484668 -0.33517462 0.49736461 16711680
0.37473297 -0.33528093 0.49751046 16711680
0.38138065 -0.33379626 0.49777409 16711680
-0.17134236 -0.3274664 0.49637154 16711680
-0.16753195 -0.32676157 0.49058881 16711680
-0.15572834 -0.32746038 0.49968159 65280
-0.14968 -0.32196933 0.49362448 65280
0.18609563 -0.32343692 0.49490008 16711680
0.19545695 -0.3237462 0.49649614 6723840
0.20501624 -0.32510838 0.49774852 11162880
0.2150733 -0.32504627 0.49778095 11162880
0.22467637 -0.32521227 0.49797225 11162880
0.2350418 -0.32530174 0.49824455 11162880
0.24442713 -0.32351977 0.49786073 6723840
0.25503698 -0.32424176 0.49756369 8355584
0.26586396 -0.32387048 0.49766827 8355584
0.27426615 -0.32353455 0.4972952 8355584
0.28465736 -0.32464164 0.49748769 16711680
0.29388198 -0.32513106 0.49926245 16711680
0.30577797 -0.32562995 0.49868649 16711680
0.31515509 -0.32514095 0.4978857 16711680
0.32498729 -0.32468057 0.4981384 16711680
0.33491179 -0.32443941 0.49756715 16711680
0.34470719 -0.32422641 0.49772787 16711680
0.35501915 -0.32460427 0.49777576 16711680
0.3651104 -0.32422355 0.49731427 16711680
0.3747488 -0.32451719 0.49816757 16711680
0.38323718 -0.32472682 0.49921465 16711680
-0.33086511 -0.31304106 0.49950436 65280
-0.32828817 -0.31468266 0.4944787 65280
-0.17277843 -0.31386915 0.49850437 16711680
-0.16851985 -0.31231555 0.49380878 16711680
-0.14788972 -0.31687498 0.49746582 65280
0.17829986 -0.31137168 0.4928349 16711680
0.18474747 -0.31498706 0.49359372 11162880
0.19497587 -0.3129546 0.49763963 8355584
0.20520246 -0.31503329 0.49900821 5614080
0.21516411 -0.3146635 0.49931076 5614080
0.22494461 -0.31543067 0.49910963 5614080
0.23478115 -0.31713343 0.49823445 65280
0.24499841 -0.31473872 0.4968178 65280
0.25492504 -0.31467006 0.4964602 65280
0.26503229 -0.31371301 0.4983218 8355584
0.27372465 -0.31329969 0.49781048 8355584
0.2847158 -0.31178448 0.49806479 16711680
0.30565798 -0.31262761 0.49942985 16711680
0.31534851 -0.31216475 0.49745288 16711680
0.32522672 -0.31195453 0.49766967 16711680
0.335004 -0.31263569 0.49901012 16711680
0.34491345 -0.31310982 0.49897656 16711680
0.35524452 -0.31247851 0.49896273 16711680
0.36486006 -0.31263298 0.49931189 16711680
-0.32956699 -0.30185178 0.49828085 65280
-0.16942647 -0.30359098 0.49322811 16711680
-0.13850211 -0.30045584 0.49849448 65280
-0.024088707 -0.30244926 0.49145076 16711680
-0.016104508 -0.3031131 0.49132237 16711680
0.17462014 -0.3042165 0.49222311 16711680
0.18358266 -0.30289504 0.49327573 8355584
0.19489239 -0.30396438 0.49669513 5614080
0.20426141 -0.3057788 0.49868387 8355584
0.21517336 -0.30576399 0.49892682 8355584
0.22510518 -0.30468076 0.49919763 65280
0.2347874 -0.30487365 0.4984673 65280
0.2450145 -0.30418658 0.49808174 65280
0.25475803 -0.3041499 0.49748799 65280
0.26491094 -0.30451578 0.49678272 65280
0.27371979 -0.30415422 0.49825227 12533504
0.28418148 -0.30513769 0.497637 16711680
0.29484785 -0.30000696 0.49933919 16711680
0.31526726 -0.3059372 0.49862838 16711680
0.32336399 -0.30548716 0.49782279 16711680
-0.17164592 -0.29412764 0.49477607 16711680
-0.16934985 -0.290986 0.49124494 16711680
-0.13385975 -0.29812098 0.49417692 65280
-0.12510608 -0.29192579 0.49600816 65280
-0.022816855 -0.2966738 0.49896136 16711680
-0.01774947 -0.29739904 0.49782607 16711680
0.16809054 -0.29001242 0.49283072 16711680
0.17524214 -0.29549944 0.49521962 16711680
0.185781 -0.29393137 0.49685195 11162880
0.19624126 -0.29539675 0.49858719 8355584
0.20500027 -0.29492635 0.49942368 8355584
0.21523841 -0.29513687 0.49895322 8355584
0.22508715 -0.2938987 0.49965024 65280
0.23495227 -0.29463187 0.4990783 65280
0.24527287 -0.29421729 0.49934173 65280
0.25485668 -0.29523712 0.49865499 65280
0.26504284 -0.29753649 0.49842805 4177664
0.27200043 -0.2939944 0.49919036 5614080
0.28476676 -0.29523194 0.49890506 16711680
0.2942951 -0.29128563 0.49996164 16711680
0.31475502 -0.2997658 0.49955967 16711680
0.32497185 -0.29478639 0.49900162 16711680
0.33448467 -0.29013494 0.49920586 16711680
0.39119995 -0.29904777 0.49972203 16711680
-0.17222656 -0.28396526 0.49657252 16711680
-0.16673227 -0.28237098 0.4913564 16711680
-0.11482791 -0.28569293 0.49403685 65280
0.16458739 -0.28240672 0.49234608 16711680
0.17428389 -0.28353024 0.49804005 16711680
0.18690246 -0.2835533 0.49782246 8355584
0.19476405 -0.28312856 0.49940136 8355584
0.20611684 -0.28530663 0.49981222 16711680
0.21400349 -0.28351027 0.49924812 8355584
0.22596802 -0.28546819 0.49900094 11162880
0.23493195 -0.28200924 0.49908787 65280
0.24487858 -0.2818957 0.49869847 65280
0.2545957 -0.28387612 0.49918321 8355584
0.26475993 -0.28579786 0.49910954 11162880
0.27616635 -0.28526369 0.4999325 16711680
0.28525826 -0.28526145 0.49998 16711680
0.31324196 -0.28557298 0.49849036 16711680
0.32588404 -0.28433317 0.49903318 16711680
0.33596611 -0.28466472 0.49937132 16711680
-0.16480435 -0.27522027 0.49390471 16711680
-0.10539833 -0.27899438 0.49562997 65280
-0.093915187 -0.27463815 0.49544805 65280
-0.08923997 -0.27315909 0.49239567 65280
0.16462171 -0.27588725 0.49454257 16711680
0.17543729 -0.27710766 0.49934408 16711680
0.18495528 -0.27430236 0.4959628 65280
0.1940095 -0.27379873 0.49902353 65280
0.20511556 -0.27598387 0.49994192 8355584
0.21497522 -0.27473736 0.49865162 4177664
0.22405212 -0.27469203 0.49836293 5614080
0.23503801 -0.27060175 0.49859712 65280
0.24731848 -0.27339834 0.49813855 65280
0.25518066 -0.27471006 0.49823487 5614080
0.26379314 -0.27490175 0.4980557 5614080
0.27478614 -0.27767631 0.49908558 16711680
0.28499097 -0.27705333 0.49987152 16711680
0.29485306 -0.27734765 0.49956611 16711680
0.30507407 -0.27745929 0.49973437 16711680
0.31461319 -0.277592 0.498014 16711680
0.32492846 -0.27776554 0.49893907 16711680
0.33473763 -0.27728051 0.49984702 16711680
-0.16502069 -0.26842457 0.4978554 16711680
-0.1565631 -0.26392007 0.49280414 16711680
-0.084885627 -0.26994255 0.49705058 65280
-0.075363889 -0.26626301 0.49585012 65280
-0.066940539 -0.26428163 0.49447331 65280
-0.052605819 -0.26103827 0.49303603 65280
0.14642504 -0.26412463 0.49163881 16711680
0.15407962 -0.26410985 0.49471176 16711680
0.16558564 -0.265378 0.49823636 16711680
0.17618422 -0.26863009 0.49686998 8355584
0.18485856 -0.26013693 0.49952558 65280
0.20519252 -0.26966199 0.49977189 65280
0.21488445 -0.26015943 0.49907181 65280
0.23487492 -0.26005572 0.49879646 65280
0.24503487 -0.26016399 0.49921274 65280
0.25512347 -0.26454902 0.49937436 8355584
0.26334631 -0.26482046 0.49966812 8355584
0.27462733 -0.26878938 0.49942932 16711680
0.2955696 -0.26877826 0.49982318 16711680
0.31504384 -0.26948377 0.49999234 16711680
0.32408604 -0.26885036 0.49993697 16711680
-0.15598474 -0.25428391 0.49939713 16711680
-0.14584114 -0.25995287 0.49003401 16711680
-0.13917381 -0.25248548 0.49455783 16711680
-0.055634994 -0.2596367 0.49964529 65280
-0.045259409 -0.25755471 0.49586964 65280
-0.034310259 -0.25707853 0.49583185 65280
-0.024837326 -0.25751644 0.49542063 65280
-0.016250389 -0.25621086 0.49571776 65280
-0.0060186144 -0.25452185 0.49144593 65280
0.0042452128 -0.25233907 0.49076915 65280
0.012080109 -0.25091571 0.49017879 65280
0.055411637 -0.25474328 0.49091992 65280
0.063472733 -0.2533865 0.49082822 65280
0.13521451 -0.25432134 0.49217823 16711680
0.14602445 -0.25336301 0.49866489 16711680
0.15684384 -0.2522876 0.49062315 65280
0.16748044 -0.25563022 0.49563241 65280
0.17390753 -0.25931239 0.49610677 65280
0.22423793 -0.25688946 0.49942067 65280
-0.1400732 -0.24933055 0.49627802 16711680
-0.13692752 -0.24686041 0.49553093 16711680
-0.10028088 -0.24554065 0.49313036 16711680
-0.095361292 -0.24342948 0.49616066 16711680
-0.086392432 -0.24339411 0.49334803 16711680
-0.077238366 -0.24263483 0.49158534 16711680
-0.064226151 -0.24217054 0.49224451 16711680
-0.054807346 -0.24340865 0.49048671 16711680
-0.045499701 -0.24128067 0.49350795 16711680
-0.034403663 -0.24401122 0.49175093 16711680
-0.029258195 -0.24148646 0.49607131 16711680
-0.014638837 -0.24285376 0.49698702 16711680
-0.0053926236 -0.24580269 0.49850485 8355584
0.0046645286 -0.24834982 0.49856034 65280
0.014686175 -0.24740227 0.49686512 65280
0.024476256 -0.24568467 0.49583164 65280
0.034326553 -0.2431618 0.49457583 65280
0.044678204 -0.24502504 0.49181885 65280
0.055170681 -0.24693021 0.49568647 65280
0.066870771 -0.24645904 0.49255788 65280
0.09803921 -0.24089062 0.4912242 16711680
0.11846524 -0.24321517 0.49076131 16711680
0.12557265 -0.24479741 0.49323854 16711680
0.1357277 -0.24418487 0.49581349 8355584
0.14396989 -0.24671245 0.4977698 8355584
0.15490586 -0.24757178 0.49706879 65280
0.16466042 -0.2482893 0.49940321 65280
0.20505083 -0.24741508 0.49922895 65280
0.2151221 -0.24775228 0.49927101 65280
0.22499754 -0.24818374 0.49862826 65280
0.23469436 -0.24807715 0.49957544 65280
0.24508993 -0.24754258 0.49980327 65280
0.25481331 -0.24464734 0.49986792 8355584
0.26343706 -0.24534605 0.49972311 11162880
0.30507767 -0.24140772 0.49988565 16711680
0.31564984 -0.24778715 0.49998775 16711680
0.32509467 -0.24699044 0.49968997 16711680
0.35535142 -0.24732381 0.49965426 16711680
0.36460531 -0.2461586 0.49918845 16711680
0.40286067 -0.24730769 0.4995912 16711680
-0.083224207 -0.23973304 0.49570528 16711680
-0.054960538 -0.23554969 0.49876615 16711680
-0.038444165 -0.23973304 0.49570528 16711680
0.034872107 -0.23744385 0.49925119 65280
0.044836923 -0.23682894 0.49796009 65280
0.054931454 -0.23698924 0.49829111 65280
0.064990975 -0.2369877 0.4982917 65280
0.074982107 -0.2361345 0.49610227 65280
0.083863452 -0.23414588 0.49600595 65280
0.094851419 -0.23377451 0.49322012 65280
0.10541249 -0.23444186 0.49496379 5614080
0.11506401 -0.23518698 0.4959383 8355584
0.12497747 -0.2385872 0.49673286 8355584
0.13583404 -0.23849474 0.49951956 8355584
0.14491312 -0.23773664 0.4998582 65280
0.15507892 -0.23452726 0.49978489 65280
0.16514631 -0.23453183 0.49979419 65280
0.17519268 -0.23756716 0.49956435 65280
0.18516746 -0.23768157 0.4995243 65280
0.19418807 -0.23456171 0.49985898 65280
0.20494542 -0.23496027 0.49863932 65280
0.21519373 -0.23754013 0.49923906 65280
0.22437717 -0.23325558 0.49914339 4177664
0.23502025 -0.23329914 0.49923426 4177664
0.2450493 -0.23776345 0.49970159 65280
0.25466293 -0.23795882 0.49994078 65280
0.1036575 -0.2294533 0.49913821 16711680
0.19494042 -0.22586945 0.49962693 65280
0.20493369 -0.2265473 0.49950704 65280
0.23497313 -0.2245301 0.49985352 16711680
0.22486055 -0.20288526 0.49980167 65280
0.25067592 -0.2045313 0.49977878 65280
0.21472727 -0.19291085 0.49947572 65280
0.22481149 -0.19225505 0.49963972 65280
0.21549079 -0.18723764 0.49957359 65280
0.20512858 -0.16493237 0.49954158 65280
0.23490722 -0.16504037 0.49956501 65280
-0.2641798 -0.15463763 0.49289283 16711680
-0.2547408 -0.15847246 0.49753842 16711680
-0.24561401 -0.1595038 0.4967449 16711680
-0.23494668 -0.15688738 0.4931359 16711680
-0.22759511 -0.15300044 0.49201646 16711680
-0.21459858 -0.15111783 0.49046451 65280
-0.28248459 -0.14073017 0.49791321 16711680
-0.27732041 -0.14538363 0.4960191 16711680
-0.22117813 -0.14574909 0.49877509 16711680
-0.21451783 -0.14356279 0.49623391 8355584
-0.20931943 -0.14028117 0.495094 65280
-0.28557986 -0.13636854 0.49586377 16711680
-0.21511315 -0.13438156 0.49250779 16711680
-0.20817848 -0.13053173 0.49121726 65280
-0.21402454 -0.12288434 0.49433109 5614080
-0.20967531 -0.12670609 0.49551648 65280
-0.29024971 -0.112535 0.49262938 16711680
-0.28758886 -0.11179242 0.49025258 16711680
-0.21880797 -0.11311837 0.49226499 65280
-0.29318711 -0.1066314 0.49628571 16711680
-0.28905818 -0.10092264 0.49211779 16711680
-0.25014254 -0.10466327 0.49364603 65280
-0.24425688 -0.1044789 0.49493456 65280
-0.2338032 -0.10619678 0.49590898 65280
-0.22380342 -0.10950501 0.49526161 65280
-0.29304668 -0.098117411 0.49651554 16711680
-0.30053064 -0.079426169 0.49880895 16711680
-0.13048743 -0.050226808 0.4972519 16711680
-0.12460516 -0.051244378 0.49609402 16711680
0.18662652 -0.052223206 0.4971635 16711680
0.19399734 -0.051806092 0.49608907 16711680
-0.13438131 -0.042108029 0.49492553 16711680
-0.11586314 -0.049053371 0.4928652 16711680
0.18312216 -0.043509334 0.49370188 16711680
0.20482014 -0.040624678 0.49898151 16711680
0.40320957 -0.041092455 0.4980289 16711680
0.4158656 -0.043472767 0.49073491 16711680
0.42332116 -0.040801346 0.49016389 16711680
0.45329055 -0.044408262 0.49654177 16711680
-0.13854627 -0.033441424 0.49323466 16711680
-0.10689028 -0.036271363 0.49698567 16711680
0.17915249 -0.036040813 0.49329546 16711680
0.20335692 -0.032151401 0.49375013 16711680
0.40761971 -0.034138858 0.49624822 16711680
0.42475209 -0.038489938 0.49872342 16711680
0.43147731 -0.034350753 0.49768224 16711680
0.4533436 -0.030963004 0.49427649 16711680
-0.14113514 -0.029969335 0.49493727 16711680
0.41680557 -0.026744395 0.49363789 16711680
0.42471194 -0.02353102 0.49249557 16711680
0.45149791 -0.025232792 0.4903802 16711680
-0.14752676 -0.018678069 0.49864534 16711680
-0.10273121 -0.014639109 0.49758321 16711680
0.17277145 -0.013433337 0.49783877 16711680
0.20769584 -0.016342252 0.495563 16711680
0.41635719 -0.019748986 0.49992272 16711680
0.42668116 -0.015043736 0.49883661 16711680
0.4327637 -0.016356647 0.49585381 16711680
0.45340562 -0.018871188 0.49956921 16711680
-0.14763759 -0.0048391423 0.49410912 16711680
0.16976073 -0.0050171614 0.49435475 16711680
0.44445026 -0.0074884295 0.49340364 16711680
-0.15096731 0.0036066771 0.49939618 16711680
0.1690491 0.0030241609 0.49891314 16711680
0.44820473 0.0024181008 0.49757424 16711680
-0.16604795 -0.58411086 0.50170195 65280
-0.27332848 -0.57378042 0.50079578 65280
-0.26487839 -0.57731843 0.50157607 65280
-0.25528204 -0.57712948 0.50146645 65280
-0.24527416 -0.57643491 0.50097275 65280
-0.23506965 -0.57637066 0.50054586 65280
-0.2249352 -0.57607287 0.50070429 65280
-0.21529561 -0.57143563 0.50028706 65280
-0.20881557 -0.57170808 0.50014216 65280
-0.16499195 -0.57482183 0.50055182 65280
-0.15882666 -0.57170808 0.50014216 65280
-0.26515171 -0.56690794 0.50205564 65280
-0.25522947 -0.56739569 0.50174356 65280
-0.24528959 -0.56713802 0.50160944 65280
-0.23516092 -0.56720185 0.50180626 65280
-0.22530413 -0.56718457 0.5019244 65280
-0.21496876 -0.56554538 0.50047421 65280
-0.28499132 -0.55491078 0.5004878 65280
-0.27475646 -0.55509895 0.501553 65280
-0.26519313 -0.55671072 0.50326246 65280
-0.25511622 -0.55626082 0.50260216 65280
-0.24501106 -0.5557096 0.50185335 65280
-0.23500781 -0.55601299 0.50246042 65280
-0.2250277 -0.55650085 0.50273275 65280
-0.21472481 -0.55486566 0.50143087 65280
-0.20484518 -0.55433357 0.50086343 65280
-0.19549143 -0.55455041 0.5002538 65280
-0.18517768 -0.55455363 0.50005502 65280
-0.17475305 -0.5546279 0.50048047 65280
-0.16526644 -0.55424309 0.50050378 65280
-0.15522699 -0.55481452 0.50092477 65280
-0.14534412 -0.55474579 0.5012331 65280
-0.13527317 -0.55559367 0.50083899 65280
-0.12503831 -0.55492812 0.50023955 65280
-0.11499844 -0.55507946 0.50037634 65280
-0.10496584 -0.55516309 0.50009644 65280
-0.28517631 -0.54507923 0.50167668 65280
-0.27554035 -0.54340225 0.50387168 65280
-0.26548204 -0.54603088 0.50496089 65280
-0.25464177 -0.54440272 0.50306535 65280
-0.24504012 -0.54515517 0.50160253 65280
-0.23505767 -0.54463708 0.50244677 65280
-0.22517827 -0.54506487 0.50273585 65280
-0.21495077 -0.54507738 0.50167072 65280
-0.20471233 -0.54565638 0.50171196 65280
-0.19480315 -0.54566252 0.50120479 65280
-0.18624902 -0.54623514 0.50055289 65280
-0.17631145 -0.54603422 0.50086302 65280
-0.16472498 -0.54579896 0.50162661 65280
-0.15402031 -0.54612839 0.50095022 65280
-0.14266232 -0.54570913 0.5006448 65280
-0.13657856 -0.54612452 0.50044793 65280
-0.11352303 -0.54600632 0.50041944 65280
-0.10608089 -0.54606831 0.50041592 65280
-0.34192351 -0.53487813 0.50084883 65280
-0.33483902 -0.53322804 0.50086343 65280
-0.32467368 -0.53238815 0.50109828 65280
-0.31524891 -0.53226328 0.50035155 65280
-0.30562937 -0.53281784 0.50090915 65280
-0.29499042 -0.53304332 0.50069189 65280
-0.28433692 -0.53347617 0.50106227 65280
-0.27557743 -0.53446513 0.50438225 65280
-0.26641554 -0.53661668 0.50534296 65280
-0.25508267 -0.53389096 0.50305152 65280
-0.24486342 -0.53264439 0.50178975 65280
-0.23494364 -0.5325197 0.50184238 65280
-0.22499123 -0.53352839 0.50130224 65280
-0.2147446 -0.53336221 0.50035715 65280
-0.20493919 -0.53294754 0.50077718 65280
-0.19532403 -0.53264034 0.5005852 65280
-0.18510509 -0.53331971 0.50002563 65280
-0.17489243 -0.5326829 0.50039279 65280
-0.16503756 -0.53341973 0.5020858 65280
-0.15532368 -0.53254491 0.50114566 65280
-0.32446951 -0.5233618 0.50117135 65280
-0.31537405 -0.5230673 0.5022099 65280
-0.30474469 -0.52360517 0.5013389 65280
-0.28030282 -0.52700746 0.50125855 65280
-0.27352417 -0.52626991 0.50359219 65280
-0.26506484 -0.52554286 0.50404102 65280
-0.25520933 -0.52283216 0.5022651 65280
-0.24542932 -0.52284288 0.50174427 65280
-0.23629282 -0.52289385 0.50174701 65280
-0.22598194 -0.52365315 0.50072545 65280
-0.2050024 -0.52114278 0.50009835 65280
-0.17278604 -0.52402776 0.50080848 65280
-0.16640541 -0.52357155 0.50099266 65280
-0.15539651 -0.52391505 0.50080287 65280
-0.33326724 -0.51125795 0.50127989 65280
-0.32512143 -0.51082945 0.50219667 65280
-0.31508195 -0.51101679 0.50237817 65280
-0.30536884 -0.51026726 0.50164235 65280
-0.28467152 -0.51000285 0.50020111 65280
-0.27593726 -0.51918882 0.50048906 65280
-0.26497802 -0.51499867 0.50256371 65280
-0.25448734 -0.51101565 0.50237715 65280
-0.24469866 -0.51019508 0.5013051 65280
-0.20524642 -0.51045716 0.50182843 65280
-0.19556017 -0.51002681 0.50086635 65280
-0.18499969 -0.51047397 0.50098902 65280
