# .PCD v0.7 - Point Cloud Data file format
VERSION 0.7
FIELDS x y z rgba
SIZE 4 4 4 4
TYPE F F F U
COUNT 1 1 1 1
WIDTH 1104
HEIGHT 1
VIEWPOINT 0 0 0 1 0 0 0
POINTS 1104
DATA ascii
-0.16502069 -0.26842457 0.4978554 16711680
0.39432174 -0.27583089 0.50259155 16711680
0.38507229 -0.27559617 0.50208265 16711680
0.37538233 -0.27665961 0.50209194 16711680
0.3651723 -0.27637798 0.50243926 16711680
0.3548339 -0.27684239 0.50199199 16711680
0.34483755 -0.2761575 0.50168759 16711680
0.33473763 -0.27728051 0.49984702 16711680
0.32492846 -0.27776554 0.49893907 16711680
0.31461319 -0.277592 0.498014 16711680
0.30507407 -0.27745929 0.49973437 16711680
0.29485306 -0.27734765 0.49956611 16711680
0.28499097 -0.27705333 0.49987152 16711680
0.27478614 -0.27767631 0.49908558 16711680
0.26483795 -0.27797177 0.49852821 16711680
0.25506073 -0.27769497 0.49905434 16711680
0.2451579 -0.2768257 0.50039285 16711680
0.23492697 -0.27706113 0.50015002 16711680
0.22488604 -0.27746984 0.49924096 16711680
0.21487246 -0.27730855 0.49961993 16711680
0.20497067 -0.27710757 0.49994186 16711680
0.19496793 -0.27685517 0.5004586 16711680
0.18495101 -0.27694917 0.50041401 16711680
0.17543729 -0.27710766 0.49934408 16711680
0.16811399 -0.27632016 0.49703792 16711680
-0.16765389 -0.27596724 0.49571761 16711680
-0.1740654 -0.27604297 0.50113755 16711680
0.39268667 -0.28509715 0.50147825 16711680
0.38504106 -0.28569552 0.50162894 16711680
0.37484097 -0.28584281 0.501472 16711680
0.36515597 -0.28624687 0.50162822 16711680
0.35482073 -0.28526083 0.50059611 16711680
0.34529504 -0.28508607 0.50088084 16711680
0.33596611 -0.28466472 0.49937132 16711680
0.32588404 -0.28433317 0.49903318 16711680
0.31057262 -0.28433314 0.49903324 16711680
0.30451158 -0.28510967 0.5005191 16711680
0.29482594 -0.2852625 0.50059348 16711680
0.28525826 -0.28526145 0.49998 16711680
0.27616635 -0.28526369 0.4999325 16711680
0.26463833 -0.28433317 0.49903318 16711680
0.2543793 -0.28539136 0.49997357 16711680
0.24533066 -0.28512922 0.50064886 16711680
0.23600857 -0.28527662 0.5003655 16711680
0.22805212 -0.28461778 0.49918458 16711680
0.21329691 -0.28480119 0.49942371 16711680
0.20611684 -0.28530663 0.49981222 16711680
0.19423889 -0.28424841 0.49955449 16711680
0.18523042 -0.284789 0.49968752 16711680
0.17760505 -0.28433317 0.49903324 16711680
-0.17807852 -0.28538239 0.5042631 16711680
-0.18456417 -0.28549057 0.50584257 16711680
-0.19471335 -0.28546017 0.50721198 16711680
-0.20482086 -0.28623095 0.50802994 16711680
-0.21504883 -0.28570485 0.50777781 16711680
-0.22495277 -0.28594744 0.50725329 16711680
-0.23465721 -0.28571209 0.50696641 16711680
-0.24501814 -0.28626999 0.50671697 16711680
-0.25323299 -0.28548363 0.50757301 16711680
-0.17858678 -0.29287162 0.50357324 16711680
-0.18580204 -0.29421553 0.50502074 16711680
-0.19502395 -0.29407164 0.50628769 16711680
-0.205016 -0.29383981 0.50648898 16711680
-0.21472074 -0.29379335 0.50564897 16711680
-0.22540389 -0.29404682 0.50589699 16711680
-0.23486806 -0.29402938 0.50569898 16711680
-0.24543931 -0.2942003 0.50584376 16711680
-0.2516807 -0.29438314 0.5060758 16711680
-0.25702003 -0.096884608 0.42088401 16711680
-0.22995211 -0.10805237 0.42342424 16711680
-0.23653333 -0.1054827 0.42364356 16711680
-0.24538262 -0.10371059 0.42246744 16711680
-0.25506639 -0.10316658 0.42195895 16711680
-0.26088062 -0.10322624 0.42357633 16711680
-0.2264791 -0.11662135 0.42351672 16711680
-0.23536177 -0.11422542 0.4241015 16711680
-0.24496223 -0.11388391 0.42360219 16711680
-0.25448522 -0.11302164 0.42542452 16711680
-0.26088059 -0.11055556 0.42747331 16711680
-0.21696408 -0.12490147 0.42759541 16711680
-0.22392504 -0.12179941 0.42450458 16711680
-0.23565163 -0.12168738 0.42425627 16711680
-0.24525718 -0.12324736 0.42612392 16711680
-0.2545985 -0.12159464 0.43024725 16711680
-0.20970769 -0.13661996 0.43295106 16711680
-0.21355818 -0.13149324 0.43079135 16711680
-0.24681135 -0.13268369 0.43133 16711680
-0.25402954 -0.12946635 0.43471593 16711680
-0.20832817 -0.1395528 0.43778232 16711680
-0.21158038 -0.14271244 0.43796012 16711680
-0.24662523 -0.14156988 0.43636703 16711680
-0.25154006 -0.13681176 0.43894246 16711680
-0.2096781 -0.14235175 0.4450593 16711680
-0.21607389 -0.1467981 0.44263169 16711680
-0.22460978 -0.15043429 0.44392827 16711680
-0.23515151 -0.15030262 0.44410303 16711680
-0.24383046 -0.14777112 0.44356492 16711680
-0.22878097 -0.15115184 0.44973838 16711680
-0.23127265 -0.15115184 0.44973838 16711680
0.12243226 -0.23973304 0.49570528 16711680
0.11473133 -0.23865384 0.49248877 16711680
0.10583007 -0.2354573 0.49320528 16711680
0.09803921 -0.24089062 0.4912242 16711680
-0.038444165 -0.23973304 0.49570528 16711680
-0.083224207 -0.23973304 0.49570528 16711680
0.40286067 -0.24730769 0.4995912 16711680
0.39829576 -0.2477065 0.50039786 16711680
0.37366393 -0.24754441 0.5007081 16711680
0.36460531 -0.2461586 0.49918845 16711680
0.35535142 -0.24732381 0.49965426 16711680
0.34015247 -0.24795276 0.50120842 16711680
0.33349508 -0.24722701 0.50031918 16711680
0.32509467 -0.24699044 0.49968997 16711680
0.31564984 -0.24778715 0.49998775 16711680
0.30500925 -0.24719846 0.50007445 16711680
0.29862449 -0.24795276 0.50120842 16711680
0.28284383 -0.24795276 0.50120842 16711680
0.2742503 -0.24794161 0.50057322 16711680
0.26377639 -0.24648917 0.49961212 16711680
0.25562871 -0.24729332 0.50029153 16711680
0.24463807 -0.24795276 0.50120842 16711680
0.23403774 -0.24782416 0.50097823 16711680
0.22456795 -0.24750271 0.50040275 16711680
0.21465026 -0.24814165 0.50093126 16711680
0.20144898 -0.24795279 0.50120842 16711680
0.19397393 -0.24795279 0.50120842 16711680
0.1657349 -0.24795279 0.50120842 16711680
0.14228626 -0.24822012 0.49984041 16711680
0.13506864 -0.24604025 0.49671283 16711680
0.12557265 -0.24479741 0.49323854 16711680
0.11846524 -0.24321517 0.49076131 16711680
-0.0052737668 -0.24266183 0.49726251 16711680
-0.014638837 -0.24285376 0.49698702 16711680
-0.029258195 -0.24148646 0.49607131 16711680
-0.034403663 -0.24401122 0.49175093 16711680
-0.045499701 -0.24128067 0.49350795 16711680
-0.054807346 -0.24340865 0.49048671 16711680
-0.064226151 -0.24217054 0.49224451 16711680
-0.077238366 -0.24263483 0.49158534 16711680
-0.086392432 -0.24339411 0.49334803 16711680
-0.095361292 -0.24342948 0.49616066 16711680
-0.10028088 -0.24554065 0.49313036 16711680
-0.13692752 -0.24686041 0.49553093 16711680
-0.1400732 -0.24933055 0.49627802 16711680
0.40205529 -0.25442183 0.50045758 16711680
0.39525563 -0.25416526 0.50144702 16711680
0.38480183 -0.25524923 0.50336641 16711680
0.37488025 -0.25388038 0.50197792 16711680
0.36443877 -0.25430334 0.5013361 16711680
0.3551653 -0.25412193 0.50115359 16711680
0.34544733 -0.25337523 0.50201535 16711680
0.33519754 -0.25376755 0.50143105 16711680
0.32473525 -0.25445864 0.50040174 16711680
0.31497556 -0.2541599 0.50103796 16711680
0.30488282 -0.25404763 0.50101358 16711680
0.29526034 -0.25324783 0.50201446 16711680
0.28509426 -0.25385782 0.50149727 16711680
0.27504334 -0.2541768 0.50081813 16711680
0.26511556 -0.25419685 0.50079083 16711680
0.25517106 -0.25382575 0.50115258 16711680
0.24519558 -0.25338462 0.50190455 16711680
0.23510349 -0.25382659 0.50144148 16711680
0.22521451 -0.25401002 0.50106913 16711680
0.2151221 -0.25359872 0.50159127 16711680
0.20504729 -0.25362316 0.50164574 16711680
0.19501507 -0.25386494 0.50128311 16711680
0.18498264 -0.25335312 0.50214338 16711680
0.17467916 -0.25356889 0.50192952 16711680
0.16479932 -0.2541306 0.50078309 16711680
0.15533017 -0.25411695 0.50021714 16711680
0.14602445 -0.25336301 0.49866489 16711680
0.13822769 -0.25221357 0.49592337 16711680
-0.13917381 -0.25248548 0.49455783 16711680
-0.15598474 -0.25428391 0.49939713 16711680
-0.16444565 -0.25587383 0.50273025 16711680
-0.17147237 -0.25675288 0.50588751 16711680
-0.19888084 -0.25675288 0.50588751 16711680
-0.20376454 -0.2568911 0.50567788 16711680
0.40139964 -0.26276681 0.50271446 16711680
0.39494649 -0.26404718 0.50224698 16711680
0.38508764 -0.26476404 0.50254816 16711680
0.37501433 -0.26414347 0.50278151 16711680
0.36546609 -0.26385203 0.50344926 16711680
0.35517776 -0.26390299 0.50387537 16711680
0.34534124 -0.263567 0.50232589 16711680
0.33503723 -0.26285872 0.50100911 16711680
0.32545158 -0.26255646 0.50099391 16711680
0.31498364 -0.2629334 0.50141996 16711680
0.30560526 -0.26321009 0.50147676 16711680
0.29462183 -0.26219994 0.50126755 16711680
0.28497952 -0.26298591 0.5010767 16711680
0.27507892 -0.2619662 0.50079119 16711680
0.26530689 -0.2624158 0.50085729 16711680
0.25459173 -0.26234671 0.50093377 16711680
0.24484125 -0.26333207 0.50141728 16711680
0.23485576 -0.26293492 0.50102019 16711680
0.22491708 -0.26360163 0.50152791 16711680
0.21499944 -0.26331824 0.50186568 16711680
0.20506287 -0.26348242 0.50161326 16711680
0.19471966 -0.2634201 0.50150466 16711680
0.18531588 -0.26309586 0.50154191 16711680
0.17536807 -0.26258102 0.50130457 16711680
0.1666207 -0.26193315 0.4998078 16711680
-0.1665844 -0.26175213 0.50255919 16711680
-0.17507739 -0.26269233 0.50632733 16711680
-0.18520983 -0.26358956 0.5073989 16711680
-0.19495931 -0.26333967 0.50627512 16711680
-0.20482881 -0.26299301 0.50654048 16711680
-0.21447311 -0.26325518 0.5071826 16711680
-0.2248982 -0.2644363 0.50788885 16711680
-0.23565833 -0.26438805 0.50843704 16711680
-0.2455156 -0.2644909 0.50827587 16711680
-0.25498924 -0.26376244 0.508246 16711680
-0.2606858 -0.26462764 0.50894201 16711680
0.40049246 -0.26986524 0.5037989 16711680
0.39666155 -0.27040428 0.50295299 16711680
0.37455231 -0.27040428 0.50295299 16711680
0.36489075 -0.27022463 0.50323498 16711680
0.35530186 -0.26995507 0.50365794 16711680
0.34916759 -0.27040428 0.50295299 16711680
-0.1779419 -0.27037373 0.50605124 16711680
-0.18502526 -0.27314135 0.507806 16711680
-0.19483115 -0.27298498 0.50775939 16711680
-0.20496409 -0.27280238 0.5085631 16711680
-0.21494354 -0.27275956 0.50841707 16711680
-0.22510664 -0.27282307 0.50831628 16711680
-0.23512374 -0.27266225 0.50857037 16711680
-0.24509586 -0.27225304 0.50901282 16711680
-0.25485623 -0.27228868 0.50938332 16711680
-0.26019883 -0.26809317 0.50965202 16711680
-0.18718687 -0.27908048 0.50756615 16711680
-0.19645397 -0.2792123 0.50839132 16711680
-0.20553117 -0.28010041 0.50902873 16711680
-0.21503727 -0.27918291 0.50884026 16711680
-0.22507261 -0.27954087 0.50837725 16711680
-0.23560704 -0.27934372 0.50838572 16711680
-0.24509247 -0.27914751 0.50901747 16711680
-0.25423726 -0.27901676 0.50923103 16711680
-0.25630349 -0.083089113 0.42175987 16711680
-0.26249093 -0.082884908 0.42153004 16711680
-0.24606656 -0.094980776 0.42181319 16711680
-0.25481167 -0.091766298 0.42122051 16711680
-0.26189512 -0.091066718 0.42141482 16711680
-0.24086331 -0.099019527 0.42315173 16711680
-0.26165977 -0.11444381 0.43135294 16711680
-0.2616598 -0.12031972 0.43447724 16711680
-0.21003591 -0.12982354 0.4440608 16711680
-0.25882041 -0.12835899 0.442527 16711680
-0.26244646 -0.12517819 0.44223791 16711680
-0.20771368 -0.14039841 0.44628578 16711680
-0.25456217 -0.13573441 0.44558564 16711680
-0.20933796 -0.14078638 0.45170191 16711680
-0.2147948 -0.14494276 0.4522886 16711680
-0.22286244 -0.14970633 0.45058769 16711680
-0.23587213 -0.15043375 0.45048913 16711680
-0.24612395 -0.1480805 0.45159739 16711680
-0.25291178 -0.143713 0.45323917 16711680
-0.21768315 -0.14792255 0.458592 16711680
-0.22496764 -0.15081239 0.45690241 16711680
-0.23470165 -0.15215781 0.45706883 16711680
-0.24431963 -0.15061525 0.45760748 16711680
-0.2514689 -0.14805195 0.45884955 16711680
0.24177916 -0.22441128 0.50001693 16711680
0.23497313 -0.2245301 0.49985352 16711680
0.41049066 -0.23036981 0.50318509 16711680
0.40557843 -0.23337099 0.50295126 16711680
0.39509046 -0.23363379 0.5039497 16711680
0.38458306 -0.2327331 0.50290936 16711680
0.37475285 -0.23284739 0.5022372 16711680
0.36517534 -0.23372975 0.50184023 16711680
0.3542752 -0.2327522 0.5028944 16711680
0.34487388 -0.23165205 0.50105631 16711680
0.33549204 -0.23237616 0.50146395 16711680
0.32502317 -0.23196775 0.50159526 16711680
0.31501788 -0.23202133 0.50085431 16711680
0.30466756 -0.23180214 0.5004428 16711680
0.29508343 -0.23166519 0.5005095 16711680
0.28591305 -0.23268375 0.50237679 16711680
0.27471766 -0.232645 0.50238132 16711680
0.26481083 -0.23219013 0.50051272 16711680
0.25476107 -0.23187119 0.50038576 16711680
0.24487832 -0.23166686 0.50012112 16711680
0.23492399 -0.23189238 0.49926445 16711680
0.22508967 -0.23187169 0.49993035 16711680
0.21491189 -0.23126361 0.50048292 16711680
0.20554142 -0.23146576 0.50194764 16711680
0.19473851 -0.23177856 0.50139552 16711680
0.1851988 -0.23220515 0.50137305 16711680
0.17537245 -0.23297119 0.5029825 16711680
0.16485177 -0.23313648 0.503618 16711680
0.15436935 -0.2331478 0.50326818 16711680
0.14428219 -0.23092353 0.50132042 16711680
0.13536383 -0.23177564 0.50130337 16711680
0.12537365 -0.23406842 0.50109327 16711680
0.11537476 -0.23152035 0.49901482 16711680
0.1036575 -0.2294533 0.49913821 16711680
0.097324535 -0.2308664 0.5003345 16711680
-0.017897654 -0.23412293 0.50367051 16711680
-0.034244221 -0.23625094 0.50064921 16711680
-0.046475966 -0.23279175 0.50266069 16711680
-0.054960538 -0.23554969 0.49876615 16711680
-0.064571545 -0.23419011 0.50068605 16711680
-0.074886695 -0.23440251 0.50230908 16711680
-0.085139781 -0.23442996 0.50149316 16711680
-0.090149283 -0.23450989 0.5031212 16711680
0.40332389 -0.24025723 0.50104731 16711680
0.39509517 -0.24132338 0.50312608 16711680
0.38522118 -0.24222136 0.5024721 16711680
0.37544566 -0.24171332 0.5008691 16711680
0.36533263 -0.2401008 0.50010747 16711680
0.35467735 -0.24080622 0.50159031 16711680
0.34520209 -0.2426109 0.50162864 16711680
0.33560666 -0.2416555 0.50066882 16711680
0.32505479 -0.24041992 0.50047493 16711680
0.31519535 -0.24156341 0.50047028 16711680
0.30507767 -0.24140772 0.49988565 16711680
0.29491022 -0.242724 0.50099939 16711680
0.28523415 -0.24221072 0.50158709 16711680
0.27535287 -0.24159995 0.50135404 16711680
0.26576394 -0.2412973 0.49958083 16711680
0.25469062 -0.24178609 0.49989924 16711680
0.24527425 -0.24287096 0.50087142 16711680
0.23540275 -0.24228185 0.50049734 16711680
0.22525147 -0.24166781 0.50013185 16711680
0.21518044 -0.24204782 0.50084513 16711680
0.20528191 -0.24217466 0.50176048 16711680
0.19522774 -0.24249917 0.50125337 16711680
0.18517996 -0.24282065 0.5011732 16711680
0.17525844 -0.24232411 0.50208521 16711680
0.16513206 -0.24190482 0.50236559 16711680
0.15503168 -0.24147531 0.50327402 16711680
0.14547597 -0.24199972 0.50210464 16711680
0.1365307 -0.23979378 0.49992803 16711680
0.1285443 -0.23975226 0.49854693 16711680
-0.0075569414 -0.23715103 0.50226039 16711680
-0.017338548 -0.23869252 0.50005984 16711680
-0.024202641 -0.23772907 0.50143516 16711680
-0.094023958 -0.23686197 0.50267303 16711680
-0.10320807 -0.23745182 0.50279784 16711680
-0.13746484 -0.2403588 0.50056827 16711680
-0.14564513 -0.24117026 0.50613987 16711680
-0.1549302 -0.24262953 0.50753272 16711680
-0.16513246 -0.24244043 0.50780976 16711680
-0.17558032 -0.24161902 0.50770068 16711680
-0.18406773 -0.24229553 0.50839347 16711680
-0.19590847 -0.24227098 0.50888371 16711680
-0.20539041 -0.24161905 0.50770062 16711680
-0.21456133 -0.24190626 0.50818646 16711680
-0.2235824 -0.24216816 0.50870323 16711680
-0.23524235 -0.24203113 0.50870579 16711680
-0.24465059 -0.24192026 0.50857145 16711680
-0.25391927 -0.24216816 0.50870323 16711680
-0.26327157 -0.24257025 0.50910586 16711680
0.39176589 -0.24922237 0.50301605 16711680
0.38521692 -0.24936897 0.50340283 16711680
0.17922577 -0.24885517 0.50282079 16711680
-0.14687654 -0.2473034 0.50511026 16711680
-0.15447775 -0.24716234 0.50531834 16711680
-0.16585132 -0.24886712 0.50641364 16711680
-0.17509322 -0.25090873 0.50674421 16711680
-0.18518686 -0.25042143 0.508084 16711680
-0.19488403 -0.25042203 0.50754136 16711680
-0.20478608 -0.25077063 0.5062933 16711680
-0.21473156 -0.25072846 0.50744784 16711680
-0.22497471 -0.24978879 0.50894666 16711680
-0.23502465 -0.24967468 0.50894928 16711680
-0.2449237 -0.25027227 0.50813615 16711680
-0.25479692 -0.25045508 0.50807232 16711680
-0.26247379 -0.24909532 0.50874448 16711680
-0.17764197 -0.25766906 0.50750721 16711680
-0.18429683 -0.25766906 0.50750721 16711680
-0.21757124 -0.25766906 0.50750721 16711680
-0.22487842 -0.25798646 0.50839663 16711680
-0.23433743 -0.25847721 0.50869197 16711680
-0.24426915 -0.25855061 0.50857997 16711680
-0.25487694 -0.25834706 0.50786763 16711680
-0.2618221 -0.2589545 0.50856823 16711680
-0.2658973 -0.12162545 0.45216003 16711680
-0.21107207 -0.13064224 0.45695436 16711680
-0.2591868 -0.13259616 0.45497301 16711680
-0.26082551 -0.13062927 0.45581493 16711680
-0.21204223 -0.14221737 0.460655 16711680
-0.25752324 -0.14292705 0.45952231 16711680
-0.26174417 -0.13886818 0.46288541 16711680
-0.21535333 -0.14850149 0.46531758 16711680
-0.22438134 -0.15204346 0.4648819 16711680
-0.23435111 -0.15359339 0.46462739 16711680
-0.24594592 -0.15249512 0.46485233 16711680
-0.25503203 -0.1488184 0.46512216 16711680
-0.26166168 -0.14604852 0.46804032 16711680
-0.21867605 -0.15137282 0.47175226 16711680
-0.22560237 -0.15326378 0.4711847 16711680
-0.23537882 -0.15494373 0.47050056 16711680
-0.24462698 -0.15519145 0.47166571 16711680
-0.25320372 -0.15274099 0.47134712 16711680
0.4135111 -0.20951256 0.50254953 16711680
0.39188865 -0.21060476 0.50362402 16711680
0.38555151 -0.21086404 0.50381577 16711680
0.36122569 -0.2109071 0.50416225 16711680
0.35488212 -0.21060559 0.50315249 16711680
0.34569451 -0.2106804 0.50375855 16711680
0.33454913 -0.2108213 0.50346947 16711680
0.32555926 -0.20991176 0.50283366 16711680
0.31555846 -0.2105549 0.50321996 16711680
0.30462667 -0.20987892 0.50308704 16711680
0.29511255 -0.20918283 0.50211281 16711680
0.28618467 -0.21016496 0.50335574 16711680
0.27300048 -0.21052894 0.50396115 16711680
0.26470271 -0.20957413 0.50245422 16711680
0.25511441 -0.21010715 0.50099987 16711680
0.24569739 -0.21001789 0.50182074 16711680
0.23507747 -0.21141174 0.50348681 16711680
0.22452357 -0.21021706 0.50266272 16711680
0.21595787 -0.21072218 0.50267005 16711680
0.20427962 -0.21115968 0.50335276 16711680
0.19465846 -0.21019095 0.50229496 16711680
0.18567336 -0.20908153 0.50224769 16711680
0.17490746 -0.21034935 0.5031687 16711680
0.16545087 -0.21021646 0.50306702 16711680
0.15553312 -0.21098319 0.50335324 16711680
0.14444545 -0.21045363 0.50335479 16711680
0.13540402 -0.21057129 0.50335449 16711680
0.12824261 -0.2109071 0.50416225 16711680
0.056291968 -0.2109071 0.50416225 16711680
0.031451859 -0.21090713 0.50416225 16711680
0.41240251 -0.21747443 0.50425637 16711680
0.40538236 -0.21826178 0.50577134 16711680
0.39478853 -0.21799454 0.50476742 16711680
0.38512242 -0.21815309 0.5043419 16711680
0.37517941 -0.21829477 0.50510442 16711680
0.36485776 -0.21783009 0.50506681 16711680
0.3547262 -0.21902356 0.50288802 16711680
0.34492958 -0.21925914 0.50279111 16711680
0.33499014 -0.21902391 0.50328171 16711680
0.32480115 -0.21953294 0.50225317 16711680
0.3149811 -0.21984258 0.50211799 16711680
0.30527589 -0.21913335 0.5021655 16711680
0.29458782 -0.21942714 0.50206369 16711680
0.28491989 -0.21875042 0.503564 16711680
0.27505752 -0.21814322 0.50409746 16711680
0.26523426 -0.21933031 0.50290948 16711680
0.25522667 -0.21938741 0.50173438 16711680
0.24515305 -0.21892849 0.50128347 16711680
0.234924 -0.21804741 0.50188822 16711680
0.22502817 -0.21905175 0.5018537 16711680
0.2149421 -0.21905082 0.50165915 16711680
0.20491107 -0.21941286 0.50258166 16711680
0.19490279 -0.2194097 0.50225425 16711680
0.1850192 -0.2190249 0.50341165 16711680
0.17486706 -0.21800065 0.50430977 16711680
0.16477309 -0.2181879 0.50425833 16711680
0.15496318 -0.21811748 0.50422072 16711680
0.14536086 -0.21922159 0.50227857 16711680
0.13505958 -0.21913713 0.50254232 16711680
0.12553953 -0.21813911 0.50474316 16711680
0.11517487 -0.21902442 0.50597709 16711680
0.10471291 -0.21829623 0.50594741 16711680
0.094730325 -0.21788824 0.50609988 16711680
0.084412739 -0.21750844 0.50560701 16711680
0.074929401 -0.21615559 0.50522941 16711680
0.065659352 -0.2175737 0.50509596 16711680
0.055540517 -0.21733004 0.50563592 16711680
0.045124657 -0.21817401 0.5073368 16711680
0.034532055 -0.21733317 0.50623399 16711680
0.025358019 -0.21733952 0.50685447 16711680
0.013851117 -0.21792391 0.50671709 16711680
0.0049879476 -0.21755996 0.50621855 16711680
-0.0044628792 -0.21739328 0.50678051 16711680
-0.014904033 -0.21701831 0.50627935 16711680
-0.024903569 -0.21712613 0.50570726 16711680
-0.035033081 -0.21700165 0.50630361 16711680
-0.045226779 -0.21853727 0.50636184 16711680
-0.055335473 -0.2187998 0.50538069 16711680
-0.064817607 -0.21804917 0.50577569 16711680
-0.074741721 -0.218261 0.50684136 16711680
-0.084554121 -0.21858296 0.50745076 16711680
-0.094738871 -0.21906674 0.50772214 16711680
-0.10562994 -0.21878135 0.50759399 16711680
-0.11540446 -0.21848321 0.50691026 16711680
-0.12521251 -0.21894845 0.50716358 16711680
-0.13451834 -0.21889862 0.50759351 16711680
-0.14440638 -0.21893042 0.50812626 16711680
-0.15485485 -0.21924078 0.50794613 16711680
-0.16557692 -0.2189776 0.50765401 16711680
-0.17409478 -0.21901867 0.50790888 16711680
-0.18525665 -0.21998265 0.50898778 16711680
-0.19451617 -0.21941644 0.5079897 16711680
-0.20195948 -0.21960452 0.50878668 16711680
-0.21665265 -0.21980417 0.50840741 16711680
-0.22516547 -0.21972033 0.50790453 16711680
-0.23484798 -0.21973273 0.50817531 16711680
-0.24521549 -0.21998265 0.50898778 16711680
0.41177633 -0.22592351 0.50459623 16711680
0.40495634 -0.22716379 0.50493771 16711680
0.39554027 -0.22785306 0.50492108 16711680
0.38554138 -0.22701076 0.50404161 16711680
0.37543106 -0.22672948 0.50382346 16711680
0.36454764 -0.22692642 0.50439799 16711680
0.35612223 -0.2275826 0.50362843 16711680
0.33438075 -0.22650629 0.50282961 16711680
0.32761928 -0.22650626 0.50282967 16711680
0.28436568 -0.22725603 0.5037002 16711680
0.27587372 -0.22710302 0.50314701 16711680
0.20321122 -0.22680107 0.50242007 16711680
0.19983178 -0.22680107 0.50242007 16711680
0.1826138 -0.22687927 0.50302798 16711680
0.17504105 -0.22732708 0.50398332 16711680
0.16546641 -0.22737813 0.50448865 16711680
0.15551443 -0.22744393 0.50422758 16711680
0.14914034 -0.22680107 0.50242007 16711680
0.13188338 -0.22687927 0.50302798 16711680
0.12532686 -0.22681496 0.50444996 16711680
0.11639912 -0.22562194 0.5040583 16711680
0.093575642 -0.22603071 0.50540817 16711680
0.084340438 -0.22570524 0.50731146 16711680
0.064734213 -0.22617888 0.50616658 16711680
0.055683419 -0.2257269 0.50776345 16711680
0.043969508 -0.22341022 0.50945115 16711680
0.034874216 -0.22688785 0.50882328 16711680
0.024708254 -0.22678834 0.50940853 16711680
0.01496654 -0.22697496 0.50844884 16711680
0.0048552118 -0.22548312 0.50764865 16711680
-0.005093392 -0.22506335 0.50890923 16711680
-0.014743928 -0.22661638 0.50699371 16711680
-0.024812277 -0.22730118 0.50717586 16711680
-0.034775939 -0.22578603 0.50844932 16711680
-0.044663992 -0.22586015 0.50718617 16711680
-0.054845873 -0.22692138 0.50512671 16711680
-0.065367222 -0.22578001 0.50672203 16711680
-0.075308219 -0.2262097 0.50826091 16711680
-0.08475849 -0.22563982 0.50763541 16711680
-0.095312044 -0.22708181 0.50808114 16711680
-0.10493544 -0.22682279 0.50853288 16711680
-0.11481994 -0.22733554 0.50869083 16711680
-0.12537989 -0.22621474 0.50901693 16711680
-0.13530806 -0.227433 0.50866663 16711680
-0.14483735 -0.2275756 0.50859177 16711680
-0.1551508 -0.22710422 0.50921941 16711680
-0.16518402 -0.22683138 0.50943142 16711680
-0.17504363 -0.2270126 0.50955456 16711680
-0.18488626 -0.22688106 0.5093227 16711680
-0.19490945 -0.22700417 0.50948524 16711680
-0.2048711 -0.22692558 0.50950837 16711680
-0.21488141 -0.22732693 0.50875002 16711680
-0.22493844 -0.22793779 0.50816941 16711680
-0.2349088 -0.22760496 0.50851041 16711680
-0.24493204 -0.22722372 0.50892252 16711680
-0.25486675 -0.22698456 0.51006824 16711680
-0.26501349 -0.22727805 0.51007086 16711680
-0.2704252 -0.22283995 0.50937444 16711680
0.040929366 -0.2328738 0.51131189 16711680
0.034199595 -0.2351647 0.51252991 16711680
0.025009248 -0.2358295 0.51255971 16711680
0.015364785 -0.2352936 0.5103333 16711680
0.0088307895 -0.23517686 0.50800616 16711680
-0.1080215 -0.23448765 0.50801718 16711680
-0.14686298 -0.23592326 0.508403 16711680
-0.15494812 -0.23617616 0.50933689 16711680
-0.16499706 -0.23603222 0.50971949 16711680
-0.17447434 -0.23595566 0.50898653 16711680
-0.1856897 -0.23663336 0.50931704 16711680
-0.19499721 -0.23697355 0.50983661 16711680
-0.20474441 -0.23570141 0.50893223 16711680
-0.21542592 -0.23663396 0.50885177 16711680
-0.22561358 -0.23685047 0.50938129 16711680
-0.23512392 -0.23685566 0.50895274 16711680
-0.24498646 -0.23670802 0.50874472 16711680
-0.2553063 -0.23663184 0.5096966 16711680
-0.26431757 -0.2366952 0.51000553 16711680
-0.27432093 -0.11189142 0.45944259 16711680
-0.26668087 -0.12750164 0.46604383 16711680
-0.21317081 -0.1342859 0.46976435 16711680
-0.26680997 -0.13572708 0.46826556 16711680
-0.27078554 -0.13466483 0.47240087 16711680
-0.21320046 -0.14389279 0.474646 16711680
-0.26665708 -0.14526036 0.47325453 16711680
-0.27286482 -0.14105815 0.47721598 16711680
-0.21735938 -0.15020734 0.47787395 16711680
-0.22485079 -0.15345517 0.47931501 16711680
-0.23407425 -0.15629247 0.47881874 16711680
-0.24521454 -0.15715879 0.47775444 16711680
-0.25551814 -0.15476248 0.47751847 16711680
-0.2638239 -0.15121558 0.4796721 16711680
-0.27008536 -0.1471934 0.48047814 16711680
-0.23631339 -0.15725586 0.48439381 16711680
-0.24495991 -0.15840772 0.48436454 16711680
-0.25420943 -0.15753618 0.48444036 16711680
0.42104432 -0.19012418 0.5033049 16711680
0.41524172 -0.18980995 0.50370407 16711680
0.40454784 -0.18935728 0.50289714 16711680
0.39472526 -0.18776828 0.50230402 16711680
0.385885 -0.18936947 0.5030067 16711680
0.37522063 -0.18981507 0.5033024 16711680
0.36460787 -0.19012418 0.50330496 16711680
0.35524026 -0.18910521 0.50321627 16711680
0.34527594 -0.18864283 0.50258386 16711680
0.33560166 -0.18866348 0.50274056 16711680
0.32466885 -0.18910131 0.50276095 16711680
0.31506994 -0.18776169 0.5019154 16711680
0.30526546 -0.18722084 0.50162774 16711680
0.29480031 -0.18736282 0.50183654 16711680
0.28471079 -0.1878545 0.50204146 16711680
0.27482697 -0.18794233 0.50255674 16711680
0.26508594 -0.18971276 0.50257146 16711680
0.2550534 -0.18799964 0.50248432 16711680
0.24568996 -0.1892018 0.5029403 16711680
0.23378816 -0.18981507 0.5033024 16711680
0.2249499 -0.18904212 0.5032959 16711680
0.21468249 -0.1898151 0.5033024 16711680
0.20373215 -0.18889558 0.50273871 16711680
0.19471961 -0.18715867 0.50172824 16711680
0.1851304 -0.18852079 0.50236535 16711680
0.17607884 -0.18932191 0.50321817 16711680
0.16942935 -0.18949568 0.50410324 16711680
0.42048886 -0.19228372 0.50332063 16711680
0.41459763 -0.19675562 0.50292557 16711680
0.40511128 -0.19641039 0.50337112 16711680
0.39490107 -0.19660679 0.50208837 16711680
0.38507634 -0.1971572 0.50212377 16711680
0.37502381 -0.1971339 0.50289094 16711680
0.3652786 -0.19611892 0.5039441 16711680
0.35495192 -0.19690707 0.50282621 16711680
0.34503099 -0.19715172 0.50270665 16711680
0.33518225 -0.1970953 0.5026834 16711680
0.32510728 -0.19718555 0.50256699 16711680
0.31478235 -0.19645825 0.5026381 16711680
0.30488098 -0.19686183 0.50150758 16711680
0.29503724 -0.19767562 0.5011394 16711680
0.28514525 -0.19694057 0.50236362 16711680
0.2748253 -0.1967442 0.50183439 16711680
0.26490623 -0.19776288 0.50182074 16711680
0.25475004 -0.19725236 0.50146651 16711680
0.24522686 -0.19698691 0.50238824 16711680
0.23509417 -0.19675496 0.50331575 16711680
0.22486781 -0.19721901 0.50222343 16711680
0.21501499 -0.19708112 0.50270027 16711680
0.20512936 -0.19628516 0.50372982 16711680
0.19489452 -0.19667006 0.50222093 16711680
0.1849968 -0.19731608 0.50163776 16711680
0.17487195 -0.19708657 0.50239563 16711680
0.16512135 -0.19658959 0.5036093 16711680
0.15507706 -0.19658691 0.50473344 16711680
0.14512011 -0.19608754 0.50473326 16711680
0.13532762 -0.19647512 0.50459778 16711680
0.12477791 -0.19654757 0.50478548 16711680
0.11506261 -0.1963734 0.50567394 16711680
0.10520586 -0.19724083 0.50546086 16711680
0.095386937 -0.19680536 0.50585067 16711680
0.084997863 -0.19587502 0.50565487 16711680
0.074293748 -0.19605148 0.50488842 16711680
0.065016277 -0.19596201 0.50414377 16711680
0.055495664 -0.19571272 0.50446433 16711680
0.045103919 -0.19577536 0.5043844 16711680
0.035005301 -0.19627935 0.50435454 16711680
0.024697341 -0.1964438 0.50517201 16711680
0.014762513 -0.19640693 0.5053342 16711680
0.0054603666 -0.19684327 0.50550652 16711680
-0.0047244877 -0.19704723 0.50633878 16711680
-0.015574072 -0.1971432 0.50576288 16711680
-0.024604317 -0.19622231 0.50495142 16711680
-0.034283463 -0.1967226 0.50539768 16711680
-0.044640433 -0.19700322 0.50639617 16711680
-0.054901864 -0.19730031 0.50689405 16711680
-0.065349996 -0.19794118 0.5085938 16711680
-0.077862561 -0.19709802 0.50757927 16711680
-0.085029289 -0.19738367 0.50650412 16711680
-0.094915688 -0.19705302 0.50721562 16711680
-0.10516472 -0.19766706 0.50754201 16711680
-0.11143631 -0.19717342 0.50818557 16711680
-0.12534915 -0.19870898 0.50900203 16711680
-0.13820386 -0.19758484 0.5076493 16711680
-0.14581855 -0.19698325 0.50737667 16711680
-0.15441993 -0.19707295 0.50737715 16711680
-0.16427869 -0.19717517 0.50747877 16711680
-0.17317459 -0.19717345 0.50818551 16711680
-0.18621787 -0.19870898 0.50900203 16711680
-0.21578269 -0.19870898 0.50900203 16711680
0.41264927 -0.20481059 0.50255662 16711680
0.40532029 -0.20707014 0.50479639 16711680
0.39557439 -0.20647711 0.50407189 16711680
0.38470128 -0.20646533 0.50332695 16711680
0.3747648 -0.20751858 0.50423729 16711680
0.36560297 -0.20638785 0.50431806 16711680
0.35500976 -0.2051428 0.50336254 16711680
0.34465596 -0.20561075 0.5037657 16711680
0.33531016 -0.2059598 0.50331992 16711680
0.32460794 -0.20498505 0.50249445 16711680
0.31489408 -0.2051768 0.50331777 16711680
0.30595693 -0.20524839 0.50275791 16711680
0.29478523 -0.20449445 0.50188518 16711680
0.2844016 -0.20541793 0.5034008 16711680
0.27516899 -0.20668724 0.50366443 16711680
0.26561815 -0.2047469 0.50201941 16711680
0.25446606 -0.20424196 0.50175095 16711680
0.2432688 -0.20474052 0.50295979 16711680
0.23511669 -0.20567802 0.50405896 16711680
0.22562109 -0.20536497 0.50267154 16711680
0.21446149 -0.20538002 0.50336266 16711680
0.20523296 -0.20553541 0.50406367 16711680
0.19557174 -0.20467728 0.50270307 16711680
0.18395035 -0.20454496 0.501912 16711680
0.17581807 -0.20559549 0.50260377 16711680
0.16489553 -0.20529854 0.50280815 16711680
0.1548373 -0.20555431 0.5038386 16711680
0.14482857 -0.2050404 0.50349677 16711680
0.13417542 -0.20532316 0.50368476 16711680
0.1243412 -0.20626253 0.50458694 16711680
0.11544935 -0.20691288 0.50556964 16711680
0.1053398 -0.20700935 0.50510991 16711680
0.095025152 -0.20694041 0.50519907 16711680
0.084776118 -0.20625409 0.50522751 16711680
0.074382298 -0.20618999 0.50478745 16711680
0.064906947 -0.20656121 0.50429779 16711680
0.055205535 -0.20658362 0.50396669 16711680
0.04514176 -0.2073659 0.50463879 16711680
0.03529831 -0.20678464 0.50445473 16711680
0.02430558 -0.20697737 0.50473744 16711680
0.015038162 -0.20702904 0.50508261 16711680
0.0055917539 -0.20681852 0.5051595 16711680
-0.0047736466 -0.20678717 0.5054009 16711680
-0.014829013 -0.20665544 0.50469768 16711680
-0.025377434 -0.20629141 0.50465268 16711680
-0.035512459 -0.20664346 0.50505865 16711680
-0.044821281 -0.20626485 0.50570929 16711680
-0.054722261 -0.20663434 0.50560266 16711680
-0.064921498 -0.20619711 0.50673741 16711680
-0.07497184 -0.20565748 0.50693661 16711680
-0.085040495 -0.20606056 0.50636727 16711680
-0.09497422 -0.2056922 0.50646895 16711680
-0.10490167 -0.20576328 0.50696093 16711680
-0.1150367 -0.20552665 0.507191 16711680
-0.12521151 -0.2060231 0.50737435 16711680
-0.13518506 -0.20573667 0.50679278 16711680
-0.14506364 -0.20554474 0.50666493 16711680
-0.15491463 -0.205834 0.50686884 16711680
-0.16504814 -0.2054061 0.50739974 16711680
-0.17504144 -0.20514545 0.50753802 16711680
-0.18487422 -0.20510107 0.50837845 16711680
-0.19480245 -0.20552883 0.50902081 16711680
-0.2052386 -0.20526421 0.50904936 16711680
-0.21498646 -0.20524889 0.50876933 16711680
-0.2250088 -0.20534009 0.50904942 16711680
-0.23463015 -0.20569265 0.50926834 16711680
-0.24444105 -0.2055909 0.51021725 16711680
-0.25512531 -0.20591113 0.51120353 16711680
-0.26448673 -0.20595369 0.51078898 16711680
-0.27268937 -0.20545533 0.51145661 16711680
0.40544856 -0.21333125 0.50658381 16711680
0.11549352 -0.21333128 0.50658381 16711680
0.10863068 -0.21333128 0.50658381 16711680
0.045271948 -0.21354771 0.50669885 16711680
0.039144412 -0.21333128 0.50658381 16711680
0.021129454 -0.21408874 0.5069865 16711680
0.017698035 -0.21408874 0.5069865 16711680
-0.045783248 -0.21333128 0.50658381 16711680
-0.050930377 -0.21333128 0.50658381 16711680
-0.074950323 -0.21333128 0.50658381 16711680
-0.085930854 -0.21393728 0.50690591 16711680
-0.096029043 -0.21441334 0.50715905 16711680
-0.10463209 -0.21424025 0.50706702 16711680
-0.11379889 -0.21354771 0.50669885 16711680
-0.12433991 -0.2139653 0.50702375 16711680
-0.13500015 -0.2140888 0.5069865 16711680
-0.14584929 -0.21446308 0.50733656 16711680
-0.15555255 -0.21470517 0.50738966 16711680
-0.16447249 -0.21391448 0.50746012 16711680
-0.17529686 -0.21448395 0.50749862 16711680
-0.18487439 -0.21548241 0.50894707 16711680
-0.19469707 -0.21426234 0.5080114 16711680
-0.20541202 -0.21543249 0.50873911 16711680
-0.21449782 -0.21495405 0.50867349 16711680
-0.22483535 -0.21422723 0.50805938 16711680
-0.23487078 -0.21459851 0.50820124 16711680
-0.24479817 -0.21445879 0.50934535 16711680
-0.25489691 -0.21522641 0.50993472 16711680
-0.26508704 -0.21471974 0.51032925 16711680
-0.27197099 -0.21377826 0.51055884 16711680
-0.2585313 -0.22090572 0.51061118 16711680
-0.26453629 -0.22090572 0.51061118 16711680
-0.27439788 -0.11454165 0.47331008 16711680
-0.27386644 -0.1227006 0.47500548 16711680
-0.2767863 -0.13033614 0.4784722 16711680
-0.28065151 -0.12710443 0.48225489 16711680
-0.2140433 -0.14052343 0.48372707 16711680
-0.27683565 -0.13973725 0.4828057 16711680
-0.28065151 -0.13801387 0.48805556 16711680
-0.21758641 -0.14683574 0.48698893 16711680
-0.22310425 -0.15124384 0.48886093 16711680
-0.26744264 -0.15135378 0.48705879 16711680
-0.27372253 -0.14630941 0.48828468 16711680
-0.22759511 -0.15300044 0.49201646 16711680
-0.23494668 -0.15688738 0.4931359 16711680
-0.24499597 -0.15917486 0.49383292 16711680
-0.25541931 -0.15797564 0.49335131 16711680
-0.2641798 -0.15463763 0.49289283 16711680
0.32438618 -0.16537407 0.50260323 16711680
0.31701195 -0.16575497 0.50280583 16711680
0.30456096 -0.16572744 0.50236648 16711680
0.29499024 -0.16533127 0.50131464 16711680
0.28564361 -0.16593745 0.50274104 16711680
0.27353081 -0.16505215 0.50222611 16711680
0.2652247 -0.16497779 0.50193965 16711680
0.25946963 -0.16606668 0.50297153 16711680
-0.24623205 -0.15983275 0.49965689 16711680
-0.25064477 -0.15983275 0.49965689 16711680
0.42367148 -0.17434904 0.50591928 16711680
0.41527671 -0.17485943 0.50627154 16711680
0.40468115 -0.17454317 0.50569046 16711680
0.3945033 -0.17417017 0.50481814 16711680
0.38518316 -0.17371443 0.5046469 16711680
0.37508345 -0.17381746 0.50460118 16711680
0.36504585 -0.1742554 0.50570768 16711680
0.35482371 -0.17347804 0.50505483 16711680
0.34511977 -0.17401287 0.50417644 16711680
0.33477214 -0.17416409 0.50480217 16711680
0.32469019 -0.17326078 0.5036912 16711680
0.31493601 -0.17322448 0.50279409 16711680
0.30505902 -0.17329022 0.50223863 16711680
0.2950078 -0.1741595 0.50137746 16711680
0.2849153 -0.17353615 0.50230336 16711680
0.27496308 -0.17398509 0.50285149 16711680
0.26499811 -0.17389277 0.50280231 16711680
0.25559309 -0.17436793 0.50423038 16711680
0.24538372 -0.1744518 0.50559628 16711680
0.23504384 -0.1747421 0.50618535 16711680
0.2249901 -0.17455885 0.50608808 16711680
0.21441196 -0.17355394 0.50561404 16711680
0.20529105 -0.17365327 0.5039593 16711680
0.19502373 -0.17373729 0.50342584 16711680
0.18497173 -0.17417783 0.50416982 16711680
0.17515214 -0.17415741 0.50554997 16711680
0.16483967 -0.17460659 0.50619107 16711680
0.15455976 -0.17408046 0.50568277 16711680
0.14505444 -0.17426839 0.50582248 16711680
0.13550319 -0.17301893 0.50616986 16711680
0.12399912 -0.17382228 0.50679308 16711680
0.11482988 -0.17271876 0.50497425 16711680
0.10490111 -0.17326516 0.50510019 16711680
0.095006526 -0.17341238 0.50524646 16711680
0.086198829 -0.1746037 0.50637823 16711680
0.075016491 -0.17541769 0.50794351 16711680
0.063890882 -0.1746746 0.50720859 16711680
0.055468399 -0.17465031 0.5067265 16711680
0.045010909 -0.17563105 0.50767946 16711680
0.034545224 -0.17519504 0.50782508 16711680
0.023954613 -0.17497241 0.5077067 16711680
0.015633419 -0.17519504 0.50782514 16711680
0.0052949674 -0.17541766 0.50794357 16711680
-0.0044130981 -0.17541769 0.50794351 16711680
-0.015297893 -0.17489821 0.50766724 16711680
-0.02466828 -0.17489445 0.50721228 16711680
-0.032125186 -0.17510596 0.50777781 16711680
-0.045010436 -0.17541769 0.50794351 16711680
-0.052953389 -0.17541763 0.50794363 16711680
0.42243147 -0.18267456 0.50541866 16711680
0.41505769 -0.18321612 0.50491732 16711680
0.40532875 -0.1835342 0.50395375 16711680
0.39454401 -0.18272188 0.5035758 16711680
0.38418403 -0.18344685 0.50400162 16711680
0.37460956 -0.18402299 0.50396818 16711680
0.36534736 -0.1837717 0.50435907 16711680
0.35526544 -0.18335453 0.50374025 16711680
0.34501576 -0.18295327 0.50270098 16711680
0.3347351 -0.18263113 0.50368929 16711680
0.32580197 -0.18331933 0.50361288 16711680
0.31530404 -0.18203315 0.50202298 16711680
0.3048434 -0.18152013 0.50175023 16711680
0.29473442 -0.18152782 0.50161707 16711680
0.28477487 -0.18196717 0.50192988 16711680
0.27479294 -0.18322238 0.50295192 16711680
0.26488662 -0.18354583 0.50333053 16711680
0.25483608 -0.18277964 0.50323302 16711680
0.24429402 -0.18336466 0.50424111 16711680
0.23533027 -0.18363497 0.50465453 16711680
0.2248996 -0.18280676 0.50454056 16711680
0.21514432 -0.18325061 0.50461209 16711680
0.20595215 -0.18382183 0.50335163 16711680
0.19477642 -0.18162328 0.50235689 16711680
0.18414123 -0.18308604 0.50312221 16711680
0.17425631 -0.18293858 0.50463736 16711680
0.16507548 -0.18401814 0.50559044 16711680
0.15529393 -0.18380377 0.50575799 16711680
0.14479809 -0.18378022 0.50578332 16711680
0.13477255 -0.18279314 0.50672811 16711680
0.12518546 -0.1832594 0.50674379 16711680
0.11514577 -0.18314788 0.50657988 16711680
0.10465647 -0.18295884 0.50681913 16711680
0.094936915 -0.18368459 0.50590616 16711680
0.085347243 -0.18318954 0.50652629 16711680
0.074856602 -0.18284971 0.5069499 16711680
0.065196358 -0.18327612 0.50641382 16711680
0.055552326 -0.18380088 0.50575668 16711680
0.045051258 -0.18369466 0.50588906 16711680
0.034534771 -0.1833359 0.50634003 16711680
0.024853274 -0.18251848 0.50737023 16711680
0.015185315 -0.18232349 0.50761384 16711680
0.004787188 -0.1822896 0.5078482 16711680
-0.0048659593 -0.18172041 0.50815862 16711680
-0.01471607 -0.18198684 0.50803888 16711680
-0.025084745 -0.18297824 0.50679147 16711680
-0.035218295 -0.18264976 0.50751036 16711680
-0.04488365 -0.18191138 0.50783682 16711680
-0.05503336 -0.18189925 0.50834358 16711680
-0.064836964 -0.18229634 0.51005661 16711680
-0.07457754 -0.18317524 0.5105418 16711680
-0.08500731 -0.18281713 0.50994575 16711680
-0.094748825 -0.18182421 0.50957733 16711680
-0.10459577 -0.18203664 0.51003218 16711680
-0.11449362 -0.1840263 0.51085973 16711680
-0.12406065 -0.18428478 0.5122807 16711680
-0.13556041 -0.18401664 0.51105958 16711680
-0.14499277 -0.18250903 0.51001537 16711680
-0.15498376 -0.18366441 0.51062953 16711680
-0.16508001 -0.18292806 0.51020026 16711680
-0.17486021 -0.18288839 0.51018375 16711680
-0.18426031 -0.1839824 0.51128942 16711680
-0.19515392 -0.18337643 0.51170903 16711680
-0.2044815 -0.1834031 0.51137155 16711680
-0.21562831 -0.18429425 0.51145512 16711680
-0.22561075 -0.18300784 0.51046914 16711680
-0.23354225 -0.1828562 0.51133239 16711680
-0.24005418 -0.18476865 0.51291555 16711680
-0.25594011 -0.18476865 0.51291555 16711680
-0.26603052 -0.18445733 0.51260841 16711680
-0.27474436 -0.18408939 0.51224542 16711680
-0.28065151 -0.18398941 0.51250124 16711680
0.16089934 -0.19040498 0.50571936 16711680
0.15480337 -0.19040498 0.50571936 16711680
0.14783655 -0.19040498 0.50571936 16711680
0.13477376 -0.19040498 0.50571936 16711680
0.12519436 -0.19040498 0.50571936 16711680
0.11407605 -0.19083223 0.50628626 16711680
0.10474143 -0.19070545 0.50659984 16711680
0.095196068 -0.19118685 0.50623798 16711680
0.08513514 -0.19040498 0.50571936 16711680
0.07642661 -0.19040498 0.50571936 16711680
0.032013111 -0.19040498 0.50571936 16711680
0.025029829 -0.19015449 0.50603914 16711680
0.016320724 -0.19070882 0.50625843 16711680
0.0045842044 -0.19076237 0.50652713 16711680
-0.0056734085 -0.19133955 0.50712234 16711680
-0.014396761 -0.19057158 0.50712925 16711680
-0.024592329 -0.19040498 0.50571936 16711680
-0.035791066 -0.19076961 0.50636625 16711680
-0.045809757 -0.19121444 0.50728238 16711680
-0.055265095 -0.19085616 0.50809115 16711680
-0.065044314 -0.1923089 0.50932723 16711680
-0.075016588 -0.1924541 0.50907397 16711680
-0.085021347 -0.19087556 0.50790155 16711680
-0.095116258 -0.19095135 0.50796032 16711680
-0.10504332 -0.19140008 0.50880909 16711680
-0.11522551 -0.19222927 0.50980395 16711680
-0.12517087 -0.19217581 0.51043612 16711680
-0.13524956 -0.191935 0.50958586 16711680
-0.144463 -0.19129214 0.50839657 16711680
-0.15480402 -0.19148925 0.50876093 16711680
-0.16528879 -0.19085851 0.50862205 16711680
-0.17493011 -0.19189608 0.50902355 16711680
-0.18506537 -0.19284669 0.50987363 16711680
-0.19491068 -0.1928905 0.51081616 16711680
-0.20498739 -0.19280353 0.51103407 16711680
-0.21492539 -0.19300562 0.51045793 16711680
-0.22499789 -0.19318724 0.51043433 16711680
-0.23485033 -0.19269538 0.51151288 16711680
-0.24500854 -0.19166589 0.51250565 16711680
-0.25513744 -0.19131967 0.51274943 16711680
-0.26499325 -0.19171003 0.51245362 16711680
-0.27460763 -0.19199619 0.51176685 16711680
-0.19876291 -0.19963202 0.51062542 16711680
-0.20137547 -0.19963202 0.51062542 16711680
-0.23620959 -0.19963202 0.51062542 16711680
-0.24579142 -0.19989643 0.51108956 16711680
-0.25437033 -0.20004496 0.51197755 16711680
-0.26487365 -0.19982356 0.51168549 16711680
-0.27416122 -0.200385 0.51152921 16711680
0.18105966 -0.047246099 0.45111915 16711680
0.17460971 -0.048062801 0.45042089 16711680
0.16924421 -0.048062801 0.45042089 16711680
-0.096347734 -0.048062801 0.45042089 16711680
-0.10536718 -0.047790587 0.45065361 16711680
-0.11178477 -0.047246099 0.45111915 16711680
0.17299971 -0.048827529 0.45196003 16711680
-0.28454727 -0.099338949 0.47655234 16711680
-0.28145725 -0.10964966 0.4831672 16711680
-0.21828802 -0.11714396 0.4803566 16711680
-0.27856663 -0.11714396 0.4803566 16711680
-0.2822783 -0.11622268 0.48439696 16711680
-0.2151304 -0.12896273 0.48777327 16711680
-0.28211242 -0.12340549 0.48368588 16711680
-0.21511315 -0.13438156 0.49250779 16711680
-0.28335786 -0.13761833 0.492753 16711680
0.28046557 -0.14371419 0.5024122 16711680
0.27867448 -0.14371419 0.5024122 16711680
0.18374631 -0.14371422 0.5024122 16711680
-0.21781684 -0.14173073 0.49635538 16711680
-0.22117813 -0.14574909 0.49877509 16711680
-0.27732041 -0.14538363 0.4960191 16711680
-0.28248459 -0.14073017 0.49791321 16711680
0.43121558 -0.14955014 0.50392962 16711680
0.42524347 -0.15127444 0.50495106 16711680
0.41525015 -0.1522896 0.50512391 16711680
0.40490836 -0.15192434 0.50510567 16711680
0.39520264 -0.15134218 0.50425225 16711680
0.38470393 -0.15094277 0.503667 16711680
0.3750658 -0.15257326 0.50521523 16711680
0.36441743 -0.15268546 0.5050506 16711680
0.35478204 -0.1517168 0.50474691 16711680
0.34542996 -0.15193889 0.50437254 16711680
0.33515126 -0.1509802 0.50360274 16711680
0.32518634 -0.15053663 0.50304985 16711680
0.31512499 -0.15123573 0.50397861 16711680
0.30499917 -0.151243 0.50327504 16711680
0.29484057 -0.1508334 0.50350791 16711680
0.28492934 -0.1505439 0.50369453 16711680
0.27494621 -0.15029871 0.50289309 16711680
0.26541722 -0.15111241 0.5037573 16711680
0.25496769 -0.15227279 0.5047493 16711680
0.24538457 -0.15264997 0.50496137 16711680
0.23534417 -0.15298894 0.50590914 16711680
0.22415785 -0.15290168 0.50578725 16711680
0.21482328 -0.15227264 0.5046978 16711680
0.2055946 -0.15348643 0.50525594 16711680
0.19440842 -0.1522736 0.5047496 16711680
0.18493253 -0.15101737 0.50352263 16711680
0.17550927 -0.15089235 0.50383049 16711680
0.16493145 -0.15165216 0.50471616 16711680
0.15538293 -0.15268052 0.50604725 16711680
0.14514557 -0.15285429 0.50651717 16711680
0.13526276 -0.15386587 0.50667739 16711680
0.12450884 -0.15348625 0.50622398 16711680
0.1148421 -0.15282243 0.50574511 16711680
0.10482691 -0.15334126 0.50594538 16711680
0.094713725 -0.15284747 0.50533634 16711680
0.085432269 -0.15249321 0.50578576 16711680
0.075005338 -0.15289336 0.50616038 16711680
0.06435515 -0.15292662 0.50585461 16711680
0.055178761 -0.15301591 0.50647718 16711680
0.044936981 -0.15342391 0.50719738 16711680
0.034333076 -0.15322459 0.50666004 16711680
0.024616538 -0.15335581 0.50689155 16711680
0.014553871 -0.1532416 0.50606245 16711680
0.0046881996 -0.15294296 0.50641328 16711680
-0.0045061037 -0.1535452 0.50666869 16711680
-0.015029285 -0.15346813 0.5071454 16711680
-0.025588442 -0.15283549 0.50680918 16711680
-0.032022011 -0.15353435 0.50706744 16711680
-0.22619177 -0.15080503 0.50202966 16711680
-0.23242645 -0.15513352 0.50206614 16711680
-0.25815836 -0.15760902 0.499607 16711680
-0.26596373 -0.15463093 0.50198764 16711680
-0.27335161 -0.15034023 0.50223547 16711680
-0.28014791 -0.14529571 0.5032531 16711680
0.43048707 -0.15742704 0.50517327 16711680
0.42519292 -0.16120562 0.50589335 16711680
0.41508293 -0.16142073 0.50592119 16711680
0.40508041 -0.16146812 0.50586569 16711680
0.39480662 -0.16179404 0.50497836 16711680
0.38512784 -0.16179684 0.50427592 16711680
0.37533656 -0.16212299 0.50517058 16711680
0.36508656 -0.16208124 0.50493789 16711680
0.35487595 -0.16211 0.50481242 16711680
0.34494564 -0.16214958 0.50541914 16711680
0.33490139 -0.16172847 0.50435627 16711680
0.32516849 -0.15984991 0.50258696 16711680
0.31487688 -0.16099128 0.50350887 16711680
0.30517393 -0.15989152 0.502886 16711680
0.29487592 -0.15879121 0.50221777 16711680
0.28491575 -0.16051206 0.50335622 16711680
0.27590156 -0.15995511 0.50265336 16711680
0.26434305 -0.15891305 0.50264651 16711680
0.25486165 -0.1620355 0.50481153 16711680
0.24508727 -0.16212776 0.50528151 16711680
0.23506483 -0.16161832 0.5055896 16711680
0.22525629 -0.16107818 0.50602549 16711680
0.21514432 -0.16265464 0.50435281 16711680
0.20456631 -0.16184697 0.504713 16711680
0.19511628 -0.16230202 0.50497735 16711680
0.18520993 -0.16198903 0.50514489 16711680
0.174869 -0.16185302 0.50501865 16711680
0.16529387 -0.1617628 0.5057168 16711680
0.15526767 -0.16100407 0.50632018 16711680
0.14500952 -0.16119361 0.50579172 16711680
0.13523889 -0.16190499 0.50553167 16711680
0.12491931 -0.16163808 0.50556231 16711680
0.11524037 -0.16156411 0.50462234 16711680
0.10530645 -0.16220683 0.50488323 16711680
0.094660997 -0.16220713 0.50488323 16711680
0.084966622 -0.16138142 0.50587153 16711680
0.075209633 -0.16109243 0.50621593 16711680
0.064517796 -0.16168255 0.50551033 16711680
0.054755934 -0.16069853 0.50668639 16711680
0.044956896 -0.15982419 0.50773156 16711680
0.035160109 -0.16020101 0.50728238 16711680
0.025378635 -0.16054493 0.50686878 16711680
0.014775343 -0.16159588 0.50561553 16711680
0.0049274378 -0.16085652 0.5064984 16711680
-0.004898563 -0.16052338 0.50689501 16711680
-0.014907759 -0.16058654 0.50702751 16711680
-0.024702523 -0.16005164 0.50727171 16711680
-0.034722161 -0.15996248 0.50808942 16711680
-0.044511471 -0.16006869 0.50940919 16711680
-0.055356253 -0.16037863 0.50880182 16711680
-0.064955994 -0.15896696 0.50875551 16711680
-0.074743256 -0.1591028 0.50968832 16711680
