# .PCD v0.7 - Point Cloud Data file format
VERSION 0.7
FIELDS x y z rgba
SIZE 4 4 4 4
TYPE F F F U
COUNT 1 1 1 1
WIDTH 1096
HEIGHT 1
VIEWPOINT 0 0 0 1 0 0 0
POINTS 1096
DATA ascii
0.18622088 -0.35529941 0.48332363 16711680
-0.078194678 -0.34960395 0.47892606 16711680
-0.099216044 -0.34960395 0.47892606 16711680
-0.10663749 -0.35348684 0.47857553 16711680
-0.1112522 -0.35763404 0.4774667 16711680
0.1931854 -0.36317188 0.4856365 16711680
0.18511122 -0.3623364 0.48525703 16711680
0.17744757 -0.36254838 0.48753855 16711680
-0.0093692243 -0.36146316 0.48852944 16711680
-0.013210159 -0.36105978 0.48820281 16711680
-0.065621406 -0.36386687 0.4897038 16711680
-0.070726156 -0.36429948 0.4895395 16711680
-0.099744201 -0.36470285 0.48986617 16711680
-0.10642982 -0.36307159 0.48633698 16711680
-0.11265585 -0.36284274 0.48301893 16711680
0.20053284 -0.36654568 0.49264517 16711680
0.19468489 -0.37074944 0.48968717 16711680
0.18431568 -0.37119502 0.48887339 16711680
0.17516856 -0.37008032 0.49171951 16711680
0.16594328 -0.37068814 0.49521029 16711680
0.15519322 -0.37151545 0.49534267 16711680
0.1459713 -0.37159815 0.49625406 16711680
0.13478656 -0.37164313 0.49618813 16711680
0.12812598 -0.37138617 0.49656492 16711680
0.060390517 -0.37138617 0.49656492 16711680
0.053677436 -0.37157127 0.49414137 16711680
0.044879034 -0.3710008 0.49392906 16711680
0.038131073 -0.37064439 0.49544954 16711680
0.013436846 -0.36682492 0.49287131 16711680
0.0082264245 -0.3677558 0.49362513 16711680
-0.0096806511 -0.36594063 0.49215522 16711680
-0.014918294 -0.36577561 0.49202159 16711680
-0.022449177 -0.36533555 0.49166524 16711680
-0.04839379 -0.36883029 0.49355954 16711680
-0.054926511 -0.36962569 0.49304 16711680
-0.064991266 -0.37028724 0.49251807 16711680
-0.074651495 -0.36995155 0.49348956 16711680
-0.085309252 -0.37074524 0.49415872 16711680
-0.095442608 -0.37048817 0.49190038 16711680
-0.10417497 -0.37078002 0.48998666 16711680
-0.11424293 -0.37118882 0.48969308 16711680
-0.13841318 -0.37206766 0.48875284 16711680
-0.14160983 -0.37026203 0.49393889 16711680
0.19240101 -0.37646583 0.49698594 16711680
0.18585223 -0.37797976 0.4958688 16711680
0.17425346 -0.37703192 0.49413109 16711680
0.1650469 -0.37724045 0.49517256 16711680
0.15486592 -0.37717548 0.49455112 16711680
0.14537016 -0.3771553 0.49494562 16711680
0.13460456 -0.37765303 0.49493957 16711680
0.12491411 -0.37858856 0.49661484 16711680
0.054527629 -0.37854922 0.49593168 16711680
0.044401214 -0.37861073 0.49610528 16711680
-0.055169802 -0.37931556 0.49478546 16711680
-0.065130204 -0.37900734 0.49575183 16711680
-0.074953213 -0.37878469 0.49613273 16711680
-0.084903628 -0.37795061 0.49517381 16711680
-0.094273493 -0.37829715 0.49399406 16711680
-0.10417756 -0.37761065 0.49335247 16711680
-0.11294845 -0.37719819 0.49178159 16711680
-0.13793154 -0.37968794 0.49640334 16711680
-0.017659653 -0.3271502 0.47200254 16711680
-0.026262466 -0.32808906 0.46959177 16711680
-0.034820434 -0.32948077 0.46797553 16711680
-0.043157939 -0.32719097 0.47119915 16711680
0.001517117 -0.33376142 0.47524729 16711680
-0.0049437247 -0.33375752 0.47315156 16711680
-0.01538555 -0.33269957 0.47427344 16711680
-0.024437096 -0.33478662 0.47179109 16711680
-0.034094352 -0.33480245 0.47035283 16711680
-0.04499555 -0.33345038 0.47205198 16711680
-0.055336837 -0.3320708 0.47054222 16711680
-0.064439878 -0.33141586 0.47127476 16711680
-0.074447975 -0.33307126 0.4717575 16711680
-0.085435569 -0.33343065 0.4728224 16711680
-0.095014989 -0.33432561 0.47325867 16711680
-0.10442258 -0.33504564 0.47442853 16711680
-0.11413212 -0.33736649 0.47379562 16711680
0.19161646 -0.34098744 0.48189619 16711680
0.18513013 -0.34205228 0.48190299 16711680
0.17809059 -0.34094873 0.48385552 16711680
0.0021687597 -0.34100947 0.48056734 16711680
-0.0048572756 -0.34124464 0.4797577 16711680
-0.015497405 -0.34164491 0.48039216 16711680
-0.024948824 -0.34270936 0.47863162 16711680
-0.034726206 -0.34340104 0.47854719 16711680
-0.044450823 -0.34391263 0.47777554 16711680
-0.054387521 -0.34656441 0.47847331 16711680
-0.065162554 -0.34703892 0.4787569 16711680
-0.07543087 -0.34590223 0.4786534 16711680
-0.085286006 -0.34483719 0.47890323 16711680
-0.093364507 -0.34613621 0.47929204 16711680
-0.10024501 -0.34779018 0.47874403 16711680
-0.11924344 -0.33990151 0.47364265 16711680
-0.12212668 -0.33822328 0.47724682 16711680
0.19336762 -0.34931847 0.4856351 16711680
0.18445586 -0.35049459 0.48299041 16711680
0.17586046 -0.34865999 0.48653641 16711680
0.16891055 -0.34941983 0.49100119 16711680
0.022491151 -0.34981444 0.4904629 16711680
0.014556289 -0.35005197 0.48764145 16711680
0.0049536377 -0.35052565 0.48571652 16711680
-0.0055317692 -0.35151467 0.484074 16711680
-0.015173551 -0.35031357 0.48417088 16711680
-0.025079187 -0.34959799 0.4853788 16711680
-0.035055999 -0.34899554 0.48615429 16711680
-0.044796798 -0.35064065 0.48423663 16711680
-0.054774296 -0.3503271 0.48442271 16711680
-0.064945176 -0.34968349 0.485221 16711680
-0.075095296 -0.34977743 0.48532945 16711680
-0.08482863 -0.34889236 0.48585171 16711680
-0.095294684 -0.34886077 0.48584414 16711680
-0.10278225 -0.35203415 0.48443791 16711680
0.20215112 -0.35542408 0.4936575 16711680
0.19698723 -0.35590369 0.48913166 16711680
0.18050757 -0.35627517 0.48561504 16711680
0.17344266 -0.35735086 0.48921674 16711680
0.1656004 -0.35611257 0.49348146 16711680
0.15586959 -0.35685813 0.49552336 16711680
0.052539755 -0.35667816 0.4963212 16711680
0.045673572 -0.35658416 0.49566719 16711680
0.024214728 -0.35567072 0.4938485 16711680
0.015013609 -0.35780439 0.49020901 16711680
0.0048584901 -0.3579137 0.49000448 16711680
-0.0050571896 -0.35835168 0.48925334 16711680
-0.015675943 -0.35844898 0.48884243 16711680
-0.025139604 -0.3567861 0.49156904 16711680
-0.035118524 -0.35514662 0.4941712 16711680
-0.044678222 -0.3570962 0.49114087 16711680
-0.054912109 -0.35759336 0.49060091 16711680
-0.065006033 -0.35691446 0.49099505 16711680
-0.075071871 -0.35690773 0.49084568 16711680
-0.084582612 -0.35675663 0.49232337 16711680
-0.095751554 -0.3564083 0.49305597 16711680
-0.10305631 -0.35711935 0.48919809 16711680
0.17165746 -0.36403865 0.49215904 16711680
0.16473067 -0.36502749 0.49484298 16711680
0.15475795 -0.36460778 0.49568081 16711680
0.044804357 -0.3636151 0.49541926 16711680
0.015261285 -0.36637202 0.4958269 16711680
0.004883375 -0.36640668 0.49557334 16711680
-0.0050702915 -0.36636344 0.49569598 16711680
-0.015318859 -0.36718118 0.49547568 16711680
-0.025012534 -0.36577088 0.49669376 16711680
-0.043900091 -0.36569643 0.49643368 16711680
-0.055175539 -0.36440614 0.49311864 16711680
-0.064714909 -0.36430207 0.49279884 16711680
-0.075747252 -0.36523309 0.49352565 16711680
-0.085089505 -0.3642827 0.49489668 16711680
-0.09365119 -0.36342889 0.4943819 16711680
0.12228116 -0.32030776 0.47984886 16711680
0.11458792 -0.32076919 0.47908416 16711680
0.10483643 -0.32082689 0.47915971 16711680
0.094940215 -0.32094863 0.47875458 16711680
0.086613283 -0.32132483 0.47875869 16711680
0.079998441 -0.32069328 0.47996306 16711680
-0.0087809637 -0.32321307 0.4768565 16711680
-0.015051488 -0.32250309 0.47628158 16711680
-0.025272924 -0.32097316 0.47555739 16711680
-0.034924258 -0.32127288 0.47455001 16711680
-0.044714902 -0.32192501 0.47685882 16711680
-0.052755315 -0.32140198 0.47908932 16711680
-0.061556306 -0.32006335 0.48073971 16711680
0.19215681 -0.32886264 0.48490572 16711680
0.18480782 -0.32849914 0.48464245 16711680
0.17492978 -0.32742095 0.48479557 16711680
0.16853516 -0.32790688 0.48580453 16711680
0.12214498 -0.32266998 0.48177832 16711680
0.11397274 -0.32404181 0.48168322 16711680
0.10463977 -0.32511896 0.48245859 16711680
0.095514685 -0.32573369 0.48204094 16711680
0.085455596 -0.32542524 0.48163584 16711680
0.077194333 -0.3243266 0.48220348 16711680
0.003494963 -0.33189458 0.47873959 16711680
-0.0029319972 -0.32633728 0.47552615 16711680
-0.027385991 -0.32941994 0.48445633 16711680
-0.035380427 -0.32771209 0.48012629 16711680
-0.044566806 -0.3260648 0.47622463 16711680
-0.05461308 -0.32612798 0.47578555 16711680
-0.065331474 -0.32628015 0.4755969 16711680
-0.074769482 -0.32516113 0.47831142 16711680
-0.084556028 -0.32589778 0.47931656 16711680
-0.094583675 -0.32703823 0.47931063 16711680
-0.10425103 -0.32848582 0.47962505 16711680
-0.11173661 -0.33127472 0.47952446 16711680
0.19423705 -0.33585817 0.48504695 16711680
0.18456212 -0.33418345 0.48304293 16711680
0.1745514 -0.33529508 0.48545238 16711680
0.16570309 -0.33356321 0.48917556 16711680
0.15599898 -0.33446184 0.49180973 16711680
0.13310431 -0.33464661 0.49212012 16711680
0.12935054 -0.33485475 0.49228856 16711680
0.0072394684 -0.33715975 0.48718524 16711680
-0.016989108 -0.33652589 0.48570687 16711680
-0.025056828 -0.33490044 0.48509246 16711680
-0.032989349 -0.33440623 0.48307133 16711680
-0.12378992 -0.3334356 0.48191762 16711680
0.20168212 -0.34398788 0.4954167 16711680
0.19786385 -0.34313318 0.49076489 16711680
0.17177421 -0.34281695 0.48914415 16711680
0.1649511 -0.34284341 0.49277142 16711680
0.15498577 -0.34179795 0.49500149 16711680
0.14522171 -0.3420887 0.49679181 16711680
0.13540073 -0.34147808 0.49641913 16711680
0.12644021 -0.34191456 0.49665278 16711680
0.073023409 -0.34197518 0.49672022 16711680
0.054389659 -0.34290829 0.49684402 16711680
0.045974929 -0.34436801 0.49525523 16711680
0.035352971 -0.34527683 0.49652484 16711680
0.025695963 -0.34712481 0.49336666 16711680
0.014906216 -0.34203982 0.490558 16711680
0.0089791864 -0.34114963 0.48752102 16711680
-0.0068459436 -0.33632019 0.49390426 16711680
-0.012362354 -0.34175333 0.48672307 16711680
-0.08646144 -0.34804299 0.49207371 16711680
-0.092602715 -0.34821382 0.49255517 16711680
0.16298045 -0.35055116 0.49468386 16711680
0.15428726 -0.350658 0.49656773 16711680
0.028131602 -0.35193145 0.49549153 16711680
-0.034729507 -0.35277963 0.49565193 16711680
-0.086762145 -0.35188827 0.49548173 16711680
-0.093363225 -0.35183898 0.49560145 16711680
0.17324613 -0.3153387 0.48656452 16711680
0.16506708 -0.31671977 0.48486185 16711680
0.15489112 -0.31466946 0.48738962 16711680
0.14527309 -0.3146801 0.48737648 16711680
0.13348083 -0.31533396 0.48495221 16711680
0.12503076 -0.31551078 0.48329625 16711680
0.11510901 -0.31447861 0.48338628 16711680
0.10549109 -0.31409144 0.48396751 16711680
0.095152184 -0.31533527 0.483302 16711680
0.085369229 -0.31552446 0.48396122 16711680
0.07620395 -0.31520092 0.48599339 16711680
-0.0082080215 -0.31502101 0.48437703 16711680
-0.015159916 -0.31518003 0.48257571 16711680
-0.026982944 -0.31407902 0.48168412 16711680
-0.036028285 -0.31522176 0.48236209 16711680
-0.044723649 -0.31409279 0.48328233 16711680
-0.055162739 -0.31842494 0.48224378 16711680
-0.060124796 -0.31943339 0.48151633 16711680
0.19302624 -0.32359976 0.48891133 16711680
0.18432991 -0.32241011 0.48738277 16711680
0.17433809 -0.32099143 0.485982 16711680
0.16487785 -0.32226226 0.48675922 16711680
0.15506425 -0.3208642 0.48873663 16711680
0.14504011 -0.32117021 0.48906198 16711680
0.13430032 -0.32252005 0.48802871 16711680
0.12480681 -0.32342678 0.48692057 16711680
0.11553527 -0.32488096 0.48778933 16711680
0.10608961 -0.32625026 0.48726353 16711680
0.094602808 -0.32337305 0.48699063 16711680
0.086017631 -0.32328969 0.48842984 16711680
0.073958121 -0.3240307 0.48663309 16711680
0.066148251 -0.32173449 0.48969656 16711680
-0.027890246 -0.32193848 0.48354492 16711680
-0.077956915 -0.32037199 0.48291978 16711680
-0.087524176 -0.32193848 0.48354492 16711680
-0.092742905 -0.32089531 0.48484477 16711680
-0.11309835 -0.3193697 0.48934624 16711680
-0.13025518 -0.32169724 0.49428692 16711680
0.19936337 -0.33321142 0.49267355 16711680
0.16274878 -0.3293626 0.49015069 16711680
0.15482716 -0.32995394 0.49151957 16711680
0.14516281 -0.33018541 0.49245295 16711680
0.13485533 -0.33044931 0.49216062 16711680
0.12469643 -0.32967547 0.493238 16711680
0.11522108 -0.32857409 0.49473262 16711680
0.1052651 -0.33005121 0.49281934 16711680
0.095272154 -0.32831195 0.49488702 16711680
0.084498256 -0.32756865 0.49584129 16711680
0.074771494 -0.32926005 0.49497786 16711680
0.065009527 -0.32907009 0.49559861 16711680
0.012136135 -0.33110625 0.49675933 16711680
0.0082090385 -0.3291769 0.49262339 16711680
-0.13116552 -0.32450643 0.49334496 16711680
0.15101154 -0.33571652 0.49470213 16711680
0.14486153 -0.33670521 0.49550307 16711680
0.13505973 -0.33665666 0.49550638 16711680
0.063977256 -0.33642048 0.49698788 16711680
0.18122703 -0.30859208 0.49435484 16711680
0.17440717 -0.30959171 0.49150285 16711680
0.16445775 -0.30885118 0.49128354 16711680
0.15496965 -0.30877995 0.49115437 16711680
0.14580551 -0.30977234 0.49042085 16711680
0.13472523 -0.30783558 0.48992479 16711680
0.12438038 -0.30649611 0.48960599 16711680
0.11505291 -0.30670711 0.48922542 16711680
0.10425581 -0.30647048 0.48991418 16711680
0.095211171 -0.30655774 0.48962882 16711680
0.085413225 -0.3074142 0.49067849 16711680
0.075370446 -0.30856952 0.49176306 16711680
0.0684558 -0.30966923 0.49355423 16711680
-0.006218411 -0.31186113 0.4882521 16711680
-0.012097292 -0.30963746 0.48838148 16711680
-0.036122959 -0.30474645 0.48913896 16711680
-0.044587459 -0.30607456 0.48964903 16711680
-0.053291824 -0.30682617 0.49080655 16711680
-0.06092171 -0.30519953 0.49379504 16711680
-0.07589002 -0.30838531 0.49251461 16711680
-0.084857076 -0.30910718 0.49384147 16711680
-0.092144459 -0.30788437 0.49575475 16711680
0.18575929 -0.31291452 0.493909 16711680
0.17904885 -0.31377873 0.49109167 16711680
0.083379522 -0.31952241 0.49617168 16711680
0.063847058 -0.31507298 0.4940699 16711680
0.0041703582 -0.3128463 0.49355349 16711680
-0.021183189 -0.31315082 0.49186996 16711680
-0.10557845 -0.3112303 0.49457708 16711680
-0.11516427 -0.31339377 0.49506915 16711680
0.14594623 -0.30153897 0.49602729 16711680
0.1339604 -0.29887506 0.49621862 16711680
0.12475573 -0.29770985 0.49609399 16711680
0.11596717 -0.29957163 0.49485657 16711680
0.10344104 -0.29889211 0.49576473 16711680
0.0953748 -0.2982927 0.49622291 16711680
-0.025168534 -0.29868597 0.49688444 16711680
-0.035609458 -0.29841965 0.49555358 16711680
-0.044263665 -0.29769346 0.49642384 16711680
-0.064932451 -0.30275199 0.49646813 16711680
-0.091073342 -0.31487253 0.46431983 7566164
-0.088167034 -0.31487253 0.46431983 7829334
-0.05292803 -0.31374323 0.46523434 8025938
-0.044354428 -0.31374323 0.46523434 7697234
-0.035747517 -0.3136684 0.46512336 7631441
-0.061909497 -0.31125578 0.46683919 7434577
-0.054564051 -0.31080443 0.46612605 7302991
-0.044900075 -0.30984274 0.46540356 6842444
-0.035509795 -0.31006363 0.46501714 6711116
-0.029359175 -0.31173983 0.46599877 6908238
-0.12598343 -0.34349564 0.45400891 10526327
-0.1241345 -0.34234613 0.45493975 10789497
-0.11347548 -0.32914141 0.46413183 9209954
-0.10606771 -0.32650772 0.46334374 9605484
-0.099331245 -0.32682705 0.46622017 9934702
-0.11162907 -0.32299018 0.46939492 9934186
-0.10465882 -0.32019675 0.46671745 8157782
-0.095158778 -0.31906611 0.46536279 8618334
-0.085205585 -0.31813866 0.46672323 8815969
-0.075558454 -0.31856924 0.47040647 8684382
-0.064443588 -0.31818351 0.46994135 8683869
-0.055192687 -0.31795442 0.46803701 9276259
-0.045267977 -0.31869286 0.46835938 9276002
-0.034426924 -0.31858411 0.4690074 9407588
-0.026744414 -0.31844768 0.47070783 8420955
-0.011633161 -0.31924894 0.47287142 7368784
-0.0048835482 -0.31872261 0.46949038 10066288
0.0041559692 -0.31911317 0.47071195 10789753
0.011324654 -0.31955189 0.47296923 9604966
0.18432115 -0.31935582 0.47355694 14733216
-0.10345437 -0.31664845 0.47488001 8223575
-0.094714209 -0.31400734 0.47405237 7828817
-0.084606685 -0.31216493 0.4728117 7565649
-0.075017586 -0.31209278 0.47329086 7697233
-0.06570065 -0.31092358 0.47213954 7434060
-0.055139426 -0.30942985 0.47322342 6973510
-0.045073438 -0.30959898 0.47360703 6645064
-0.034665592 -0.31109673 0.47398579 6448201
-0.02562172 -0.31447923 0.47315842 6645324
-0.012108649 -0.31630373 0.47504812 6579528
-0.0054011582 -0.3138653 0.47318074 6513734
0.0044966661 -0.31527352 0.47355655 6579271
0.011421994 -0.31706342 0.47489864 6776395
0.046322037 -0.31246334 0.47890437 7039824
0.050775006 -0.31245872 0.4791421 7566164
0.15966891 -0.31021497 0.47838557 15128232
0.16607252 -0.31175518 0.47861445 14602402
0.17558865 -0.31274346 0.47642931 13088908
0.18297945 -0.31437519 0.47503531 11575928
-0.091223404 -0.31130922 0.48007298 7828815
-0.084688067 -0.30985668 0.48060599 8223059
-0.074601918 -0.30866179 0.48119241 7499596
-0.06482593 -0.30857626 0.48099938 7367752
-0.05535337 -0.30868927 0.48048902 7039048
-0.046084214 -0.30959186 0.48012319 6776135
-0.038678907 -0.31103566 0.47965112 6644808
0.046682261 -0.31045559 0.48037827 6710856
0.051492274 -0.31059766 0.48032749 6973516
0.066570535 -0.30547407 0.48346794 7236423
0.074220724 -0.30446076 0.48286861 7302219
0.082464926 -0.30429482 0.48525831 7368271
0.12806059 -0.3044121 0.48565811 10393195
0.13530625 -0.30413988 0.48498341 9932132
0.14610742 -0.30449498 0.48236659 10787440
0.15497117 -0.30545044 0.48016962 11379063
0.16487309 -0.30684599 0.4806388 10194535
0.17429841 -0.30803025 0.48064288 8615506
0.1812305 -0.31117243 0.47986203 8484174
0.068051755 -0.30235019 0.48623413 7433285
0.075006686 -0.30121043 0.48616862 7170374
0.084851012 -0.30124962 0.48741516 7499598
0.095340639 -0.29950595 0.48839983 7499342
0.10498783 -0.29849967 0.48873085 7499342
0.11525884 -0.29884696 0.48957872 7695690
0.12506343 -0.29852831 0.48760644 7761742
0.13475341 -0.29827237 0.48682857 8221776
0.14414573 -0.29925317 0.48617908 7695435
0.15372895 -0.3007358 0.48584199 7563334
0.16023211 -0.30326259 0.48658898 7826758
0.099586964 -0.29521599 0.49310499 7958090
0.10402441 -0.29521599 0.49310499 7958605
0.12867691 -0.29521599 0.49310499 8089934
0.13315228 -0.29521605 0.49310508 8352585
-0.13026752 -0.35798514 0.45407087 10987662
-0.12746708 -0.35832879 0.4538998 12632477
-0.13098255 -0.3547653 0.45646384 10001542
-0.12494729 -0.34988517 0.45524898 11908491
-0.11971214 -0.35009786 0.46024343 12039556
-0.12363776 -0.34044451 0.45972821 10592118
-0.1178423 -0.34151772 0.4632616 11710596
-0.12410942 -0.33490342 0.46878889 10526584
-0.11634377 -0.33355224 0.465253 10065515
-0.10587526 -0.33321512 0.46770814 10394738
-0.09641242 -0.33008921 0.47065568 10460787
-0.12235618 -0.32858229 0.47621867 8749151
-0.11607493 -0.32432485 0.47294581 9670763
-0.092255719 -0.33018041 0.47244042 11381376
-0.084903352 -0.32831508 0.47290352 12303245
-0.075417094 -0.32590351 0.47502834 10921338
-0.064857811 -0.32586944 0.47516483 11579266
-0.054806367 -0.3273516 0.47426382 13356447
-0.044772636 -0.32654071 0.47442979 13488287
-0.035674244 -0.32706505 0.47578913 13224858
-0.024290899 -0.32509086 0.47574091 11842951
-0.014702312 -0.32558692 0.47616199 11580036
-0.0056655025 -0.32690805 0.47396702 13225117
0.0054335753 -0.32648221 0.47409642 13290910
0.014667579 -0.32561779 0.47628599 13027737
0.021642694 -0.32661387 0.47953606 13159579
0.16767737 -0.32598206 0.47990081 15325868
0.17582606 -0.32615608 0.4781712 15128489
0.18442343 -0.32607561 0.47541833 15325611
0.19139168 -0.32630289 0.47851142 13944988
-0.12140714 -0.32346725 0.4820658 9867881
-0.11514923 -0.31907836 0.48107332 8815454
-0.10588373 -0.31572756 0.47960585 8354904
-0.097510651 -0.31340295 0.48005038 8157267
-0.031828143 -0.31311771 0.48015267 6448199
-0.022986535 -0.31568024 0.47991371 6513737
-0.015940912 -0.31701052 0.47900119 6579529
-0.0054559875 -0.31401533 0.48129445 6579013
0.0055042058 -0.31544757 0.48127306 6512961
0.015604752 -0.31812242 0.4799979 6974028
0.024074623 -0.32085404 0.48428318 8027226
0.035367534 -0.3190769 0.48330459 8355677
0.044871751 -0.31797278 0.48042038 10658426
0.054552332 -0.31748375 0.48246717 11250559
0.063576214 -0.31765342 0.48569751 13093271
0.071234263 -0.31795013 0.48756292 13619872
0.14755517 -0.31767139 0.48658761 14603173
0.15596916 -0.31737232 0.48344553 14734245
0.1649491 -0.31930533 0.48033848 14734245
0.17417173 -0.3195771 0.47761059 15260075
0.18786122 -0.31794006 0.47843492 10786929
0.19187064 -0.32100192 0.48267904 9668715
-0.11262421 -0.31542709 0.48809546 9210207
-0.1044317 -0.31309295 0.48802501 8881243
-0.0949108 -0.31100035 0.48649019 8551763
-0.085300982 -0.30823129 0.4865033 8486229
-0.075390436 -0.30722046 0.48642823 7499596
-0.064803705 -0.30709046 0.48653394 7630664
-0.054837752 -0.30817899 0.48730803 7039049
-0.044970237 -0.31068507 0.48753363 6710597
-0.035584662 -0.31317881 0.48592088 7236682
-0.024962856 -0.314735 0.48724431 6841667
-0.014849522 -0.31491715 0.48711538 6184770
-0.0052651255 -0.31490448 0.48684621 6579012
0.0046724821 -0.31601256 0.48756531 6578495
0.014548399 -0.31629762 0.48776564 6052928
0.022693308 -0.31678039 0.48851013 6513476
0.036406647 -0.31393266 0.48768505 6973504
0.045113225 -0.30993745 0.48628482 6776389
0.055415753 -0.30894241 0.48497912 7105353
0.06421601 -0.31085852 0.48460019 8223319
0.074899219 -0.31165183 0.48612869 9868394
0.08538612 -0.30899048 0.48803842 9078881
0.094933994 -0.30939072 0.48875654 11315580
0.10481054 -0.30915746 0.49032944 11381114
0.11545523 -0.30944157 0.49102157 12499081
0.12508345 -0.30931529 0.48895845 13419926
0.13532153 -0.31020921 0.48755056 14274977
0.14425644 -0.31200758 0.4854472 14603429
0.15272665 -0.31211364 0.4820666 14931880
0.16743922 -0.30563116 0.48708367 8023114
0.17540951 -0.30734718 0.48734474 7826507
0.1838226 -0.31185657 0.48662776 7826254
0.19014078 -0.31561068 0.48945737 8682608
-0.092771374 -0.30889526 0.49368909 10394217
-0.084336117 -0.30654222 0.4945761 7893585
-0.074492328 -0.30499002 0.49502775 6051904
-0.06516213 -0.30475608 0.49502411 5460025
-0.056198847 -0.3066299 0.49490333 6513222
-0.048403598 -0.30962831 0.49398005 6776136
0.046998892 -0.30777913 0.49421221 6710854
0.055525016 -0.30455115 0.49442673 7105352
0.064374305 -0.30235133 0.49319544 7696711
0.07488545 -0.29962501 0.49259248 7499337
0.084878199 -0.29861596 0.49259841 9077332
0.093976729 -0.29971218 0.49109381 8288079
0.105671 -0.30406713 0.48817247 8157269
0.11473385 -0.30200967 0.49004376 8222291
0.12156507 -0.30307764 0.48845455 8879961
0.13976923 -0.29688635 0.49303916 8155719
0.14560051 -0.29810321 0.49343249 7694918
0.1556814 -0.30102256 0.4932282 6971457
0.16407911 -0.30466452 0.49340627 7102530
0.17448671 -0.3072443 0.49385977 6445121
0.18110992 -0.30976209 0.49419343 4734510
-0.13062046 -0.36946341 0.45549893 9214096
-0.1240909 -0.37030643 0.4539547 11184775
-0.11892813 -0.37252566 0.45623609 10722668
-0.13233812 -0.36374724 0.45784026 9212552
-0.1239256 -0.36422119 0.45675454 11315580
-0.13309284 -0.3573176 0.4611167 9015688
-0.12114487 -0.35773426 0.45997861 11315062
-0.11842676 -0.35606882 0.46491912 12170884
-0.13095096 -0.34451985 0.46887797 12764061
-0.11537024 -0.34794858 0.47024876 13619361
0.18393017 -0.3485679 0.4753398 14799525
-0.1316106 -0.33994555 0.47875863 9279373
-0.12890051 -0.33769035 0.47464597 8751995
-0.11075912 -0.34429348 0.47413483 13093017
-0.10475615 -0.34150502 0.47657663 13289626
-0.095209926 -0.33831057 0.47842219 13487519
-0.085817337 -0.3391833 0.48119256 13685157
-0.014372188 -0.33968362 0.48166129 13817767
-0.004853602 -0.33990785 0.48222047 13949351
0.0054358914 -0.33956733 0.48173741 13752230
0.013187738 -0.33964193 0.48157805 13686179
0.16720399 -0.3401036 0.48225713 15260846
0.17631634 -0.34075379 0.48008099 15260333
0.18409346 -0.34149915 0.47722751 14931368
0.19085652 -0.34080908 0.48084736 15260332
-0.1310993 -0.33643797 0.48382938 11580040
-0.12714891 -0.33146665 0.48199144 10197105
-0.090126589 -0.33430722 0.47689068 13750434
-0.084364317 -0.33504984 0.47833851 13816999
-0.075276151 -0.33409211 0.48126823 13224860
-0.065391362 -0.33426884 0.48181134 14145705
-0.055886712 -0.33472776 0.48078561 13553570
-0.045229699 -0.33464205 0.48136207 13488545
-0.035023183 -0.33349359 0.48157766 13685925
-0.024269419 -0.33379474 0.48125163 13488289
-0.015176047 -0.3345409 0.48013937 13620131
-0.0049916962 -0.3352268 0.4794386 13685924
0.005230627 -0.33488604 0.47896329 13685924
0.015381615 -0.33468035 0.48010239 13620131
0.025156122 -0.33234662 0.48249811 13422752
0.034678586 -0.33195943 0.48527533 13422495
0.044234153 -0.33140227 0.48644328 13422495
0.052092016 -0.33108944 0.4879317 13685665
0.15904327 -0.33219561 0.48714831 13813657
0.16488737 -0.33302701 0.48275763 14800296
0.17484888 -0.33344311 0.47979444 15194283
0.18412341 -0.33368495 0.47731411 15128490
0.19366993 -0.33276537 0.48180649 14076060
-0.12485588 -0.32478279 0.48868829 10592119
-0.11861863 -0.31849924 0.48840499 10000235
0.027641876 -0.32237175 0.48551404 9145446
0.033963758 -0.32536361 0.48406336 12369807
0.045283671 -0.32626554 0.48394448 13159323
0.055533964 -0.32647911 0.48676848 13554080
0.064974375 -0.32554024 0.48942164 13421979
0.072200812 -0.32363886 0.49191761 13619871
0.096838214 -0.32444105 0.49420902 12763020
0.10121553 -0.32475919 0.4946593 14144676
0.11850155 -0.32516608 0.49385175 12696714
0.12465177 -0.32493797 0.493184 13946527
0.13613845 -0.3248204 0.49269715 14143135
0.14484249 -0.32468054 0.48985699 13485461
0.15485895 -0.32615182 0.48817542 14800039
0.16112152 -0.32572734 0.48367769 13089934
0.19668442 -0.32590237 0.48867777 9142377
-0.12265089 -0.31988975 0.49584761 7236181
-0.1155373 -0.31582442 0.4954046 8288860
-0.10638596 -0.31253821 0.4942891 10328688
-0.041691877 -0.31237906 0.49473956 7038533
-0.034569982 -0.3144874 0.49601951 7565126
-0.025190517 -0.31501162 0.49571595 6578237
-0.014676963 -0.31523347 0.49584466 4671280
-0.0047681741 -0.31570968 0.49649858 3487012
0.0051212464 -0.31651026 0.49627876 3487269
0.014985835 -0.31654871 0.4964186 4145199
0.024862334 -0.31664842 0.49549386 5987390
0.03400087 -0.3145811 0.49506778 7170628
0.041202385 -0.31146881 0.4940981 6776126
0.076793522 -0.31963387 0.49209702 13619613
0.085374199 -0.3184301 0.49392357 13619099
0.09497159 -0.31908357 0.49298817 13026450
0.10491154 -0.31835938 0.49474645 14210211
0.11531129 -0.31853747 0.49482155 14077598
0.12464797 -0.31853777 0.49271464 14012062
0.13465524 -0.31876123 0.49173161 14472101
0.14120699 -0.31862465 0.48977399 12958605
0.18746258 -0.31380376 0.49572885 5984839
-0.11153458 -0.38692766 0.45695859 12632474
-0.10747993 -0.38644841 0.45581329 10986617
-0.13195767 -0.37725702 0.46141204 8885136
-0.12409423 -0.37797216 0.45801809 11645845
-0.1149822 -0.37840766 0.45949298 10919534
-0.1078639 -0.38317072 0.45953527 10853483
-0.13469535 -0.36752233 0.46286118 8818315
-0.11670282 -0.37071377 0.46524951 11117424
0.17709588 -0.37057447 0.47004029 14602916
0.18113731 -0.37007698 0.47108656 14734501
-0.13684638 -0.36017606 0.4722414 8753806
-0.11623688 -0.36296901 0.47143435 12631437
0.17674895 -0.36387503 0.47515875 14931881
0.18304209 -0.36290702 0.47430125 15457711
-0.11406254 -0.35502312 0.47780141 13882278
-0.1098636 -0.35375386 0.48301804 14145192
0.15872969 -0.35455158 0.48322985 14603944
0.16577996 -0.35577753 0.48055312 15523760
0.17529117 -0.35537213 0.47869533 15260588
0.18426095 -0.354072 0.47628415 15062953
0.19145852 -0.35518762 0.48138908 15457198
-0.13612001 -0.34537351 0.48560539 8095620
-0.11042443 -0.3494015 0.47967973 13685667
-0.10493093 -0.34841019 0.48308918 13750436
-0.094242983 -0.34675077 0.4854227 14211756
-0.084729262 -0.34739015 0.4856649 14014378
-0.076704316 -0.3454808 0.48792395 13487776
-0.063502967 -0.34641328 0.48770708 14277547
-0.054900527 -0.34636199 0.4866327 13882790
-0.047692355 -0.3458499 0.48786563 13422495
-0.023344889 -0.34563494 0.48744816 13159582
-0.015274202 -0.34536272 0.48509473 13488801
-0.0051067285 -0.3444002 0.48619032 13620130
0.0057081138 -0.34487939 0.48571396 13291422
0.015205783 -0.3455171 0.48546943 13685923
0.024343031 -0.34487182 0.48788053 13291422
0.035748854 -0.34567422 0.48927021 13027994
0.042222206 -0.3457005 0.4895395 13422238
0.13909461 -0.34708467 0.48970538 12827790
0.14526607 -0.34653199 0.48807275 14143650
0.15608494 -0.34718958 0.48637757 14077344
0.16461591 -0.34646654 0.48286536 15194798
0.1743917 -0.34688252 0.48067328 15457454
0.18681219 -0.34762087 0.47926304 15062698
0.19366682 -0.34689876 0.48439428 14668457
-0.13487445 -0.33935949 0.49081403 10725523
-0.073382996 -0.34133402 0.48771378 13750947
-0.065766089 -0.34182501 0.48800737 14474668
-0.054872505 -0.34047228 0.48568514 13816996
-0.04438125 -0.34204891 0.4881537 12895639
-0.034727585 -0.34084886 0.48822936 13883047
-0.025973661 -0.34108388 0.48711222 13554338
0.026254719 -0.3402271 0.48591548 13685923
0.03563232 -0.33979285 0.48733443 13225116
0.045107432 -0.33973116 0.48938355 13619617
0.054858331 -0.33925691 0.49198377 13948327
0.064765945 -0.33903798 0.49249139 13487773
0.072594531 -0.338705 0.49403113 13750946
0.096539319 -0.33895385 0.49543166 13158037
0.10150745 -0.33899695 0.49609387 14144933
0.11749252 -0.3388786 0.49501607 12828559
0.12432647 -0.33932981 0.49417576 14012578
0.13644966 -0.33978015 0.49293262 13551768
0.14477876 -0.33904654 0.48995 13814941
0.15480247 -0.33890882 0.48988253 14603430
0.1610499 -0.33886781 0.48606515 13748121
0.19803679 -0.34098551 0.48775104 13682331
0.20200472 -0.3386654 0.49228439 12037512
-0.13259894 -0.33168131 0.49695295 7830899
-0.12867588 -0.32668972 0.49537534 6973010
0.057827413 -0.33270973 0.490623 14146217
0.066192411 -0.33253357 0.49180228 13158551
0.075539745 -0.33177885 0.49651861 13816481
0.09480156 -0.33166155 0.49674946 12763021
0.11468954 -0.33142495 0.49625453 13946525
0.12519056 -0.33178258 0.49419031 13880990
0.13458233 -0.33178544 0.49446765 14669736
0.14440757 -0.33215344 0.49143785 13550997
0.15351905 -0.33264264 0.49151555 14997931
0.078722551 -0.32399061 0.49682575 13685663
0.090992481 -0.32399061 0.49682575 12368520
-0.11468112 -0.3889955 0.46097493 12039826
-0.1042495 -0.38931388 0.46014902 10986100
-0.095557302 -0.39028832 0.46257579 10853997
-0.084512293 -0.39284727 0.4647797 10985583
-0.07475768 -0.3937254 0.46453983 10986096
-0.064975142 -0.39395711 0.46403709 10986609
-0.05647485 -0.39580378 0.46312106 10855024
-0.048559193 -0.39717078 0.46201405 10526829
-0.027978469 -0.39840111 0.46101773 10526316
-0.13228746 -0.38102594 0.46479377 8951186
-0.12318406 -0.38715649 0.46401128 11909022
-0.11253875 -0.38165769 0.46403712 11051891
-0.10456925 -0.38364622 0.46637797 10985838
-0.095778108 -0.38707516 0.46758911 11117424
-0.087299295 -0.39014387 0.46729496 11051375
0.16628197 -0.3837873 0.4725301 13485718
0.17202395 -0.38363719 0.47297332 12564359
-0.14038089 -0.38240686 0.47396961 8884361
-0.11193511 -0.37496743 0.4721497 11512695
-0.10726029 -0.37948966 0.47365749 11512695
-0.099219434 -0.38240686 0.47396961 12434313
0.15883118 -0.37666535 0.47861901 12893323
0.16573028 -0.37802228 0.47572124 14801065
0.17428666 -0.37588796 0.47198346 14142879
0.18301705 -0.37546039 0.47407413 12761225
-0.11241466 -0.36880803 0.47933862 13223833
-0.083863996 -0.36951223 0.4835178 14474671
-0.078638718 -0.3688733 0.48492888 13948839
0.15775964 -0.36979109 0.48198232 14801067
0.16497569 -0.36815494 0.47878557 14997931
0.17370497 -0.36754894 0.47623995 14931624
0.18601216 -0.36787623 0.47587124 14536354
0.19148347 -0.3662236 0.48144501 14405028
-0.111816 -0.36022526 0.48324621 13553569
-0.10607128 -0.36135599 0.48775184 13618850
-0.09450902 -0.36063218 0.48756754 14080684
-0.085047789 -0.36150309 0.48611802 14014634
-0.076267727 -0.36142555 0.48840126 13619362
-0.0642303 -0.36045554 0.48905262 14409903
-0.055450343 -0.36070043 0.4879038 12896410
-0.049268425 -0.35966948 0.49109527 13752231
-0.021954527 -0.36045673 0.49064156 10264449
-0.017356718 -0.35990342 0.49032092 13292453
0.016349249 -0.36026102 0.49190298 13620647
0.038513102 -0.36026102 0.49190298 5198145
0.043460201 -0.36045548 0.49107838 13883818
0.1378486 -0.36059079 0.49039873 13025682
0.14539391 -0.36103466 0.48810324 14669737
0.15507329 -0.36098486 0.4855305 14274722
0.1624261 -0.36018062 0.48107097 15589553
0.17130142 -0.36099768 0.4797256 15129002
0.19504564 -0.36086795 0.48555672 13616287
-0.14163134 -0.35152718 0.49495444 8161671
-0.13842154 -0.34977403 0.48945764 8359051
-0.10399711 -0.35460854 0.48823693 13948072
-0.095551208 -0.35364759 0.48778802 14277807
-0.084777787 -0.35372987 0.48676902 14080170
-0.074569285 -0.35301679 0.49018621 13750948
-0.065384425 -0.35289586 0.48968607 14475440
-0.055029832 -0.35334814 0.48732376 13751461
-0.045452703 -0.35302359 0.49192119 12172688
-0.034584414 -0.35209969 0.4957087 13489580
-0.025474029 -0.35328206 0.49129611 10594438
-0.015049816 -0.3542245 0.48913726 13094302
-0.0054000248 -0.35281125 0.49228066 12502682
0.0054232213 -0.35321471 0.49131215 12765853
0.01554892 -0.35473102 0.48978937 13488802
0.024772847 -0.35313195 0.49221238 11910035
0.035488904 -0.35321775 0.49196467 11910034
0.045341469 -0.3531912 0.49133164 13619875
0.054585431 -0.35318327 0.49352667 13948582
0.064868115 -0.35333151 0.4938938 13554336
0.07305564 -0.35351527 0.4958778 13882790
0.095678002 -0.3527995 0.49590534 13421722
0.10460251 -0.35310811 0.49570999 14276518
0.11584729 -0.35363337 0.4945226 13486489
0.12461932 -0.35336044 0.4938322 14407336
0.13534939 -0.35347331 0.49236652 14209697
0.1443993 -0.35282001 0.48867026 14275236
0.15340175 -0.35264829 0.48785576 14537893
0.19804649 -0.35399264 0.48996621 9801343
0.20219517 -0.35317385 0.49479285 9275776
-0.13850799 -0.34232655 0.49597108 7897727
-0.073697902 -0.34702939 0.49232364 13619621
-0.068260707 -0.34687072 0.49277386 14672561
-0.041181933 -0.34661373 0.49227419 13224862
-0.034943528 -0.34694821 0.49329001 14080683
-0.029124729 -0.34645194 0.49150449 13752230
0.048355758 -0.34634611 0.49180454 13488031
0.055510089 -0.34615913 0.49327493 14145705
0.065377466 -0.34623641 0.49368635 13487773
0.075691767 -0.34574524 0.49648854 13619360
0.094333239 -0.34539476 0.49636644 13092244
0.11437757 -0.34504929 0.49624324 13749661
0.12548205 -0.34546843 0.494185 13947042
0.13359444 -0.34561458 0.49411273 14012576
-0.034144025 -0.40444514 0.46513054 10394729
-0.024474034 -0.40347943 0.46270913 10329193
-0.014642242 -0.40425137 0.4629049 10394729
-0.0053695994 -0.40568587 0.46474347 10394730
0.0018414967 -0.40611693 0.46681824 10460523
0.019185903 -0.40731239 0.46641177 10526316
0.025509682 -0.40697041 0.46630269 10526059
0.031099861 -0.407444 0.46656251 10526057
-0.12257918 -0.39611396 0.47059035 8685948
-0.11926371 -0.39672232 0.46932569 9936006
-0.10415807 -0.39817327 0.46715352 11381118
-0.094803564 -0.39683998 0.46684405 10788205
-0.084606268 -0.39638823 0.46737653 10985582
-0.074969754 -0.39512229 0.46750808 11051889
-0.065086544 -0.39586401 0.46687409 11052402
-0.054766301 -0.39629561 0.46639749 10921073
-0.044864148 -0.39702371 0.46688265 10855537
-0.035297088 -0.39723054 0.46700937 10855536
-0.024966842 -0.39754286 0.46739694 11052915
-0.014755484 -0.39943236 0.46944913 11250294
-0.0051136035 -0.40056568 0.47018558 11382136
0.0039294809 -0.40130615 0.47019082 11382393
0.010503018 -0.40294212 0.47020808 11118964
0.025199724 -0.40494296 0.46858782 10789485
0.13629845 -0.398862 0.47302207 12104577
0.14240614 -0.39756146 0.47430784 12039041
-0.10096809 -0.38426712 0.47374994 11249523
-0.093670025 -0.38594618 0.47294176 12039297
-0.084698044 -0.38795584 0.47225824 12302726
-0.075227603 -0.3900269 0.47436365 12697999
-0.064900719 -0.39180115 0.47444633 12697999
-0.054679938 -0.39178658 0.47587246 12764305
-0.045570716 -0.39281556 0.47522026 12698769
-0.035263844 -0.39351749 0.47519878 12567183
-0.025158715 -0.39370444 0.47584018 12699025
-0.017697455 -0.3956269 0.47555989 12764306
0.13830027 -0.3955591 0.47575784 14210215
0.14674617 -0.39227119 0.47712195 14144162
0.1549934 -0.38950852 0.47559351 13683355
0.16439424 -0.38838235 0.47501633 12828302
0.17477432 -0.38771084 0.47619146 11840122
0.18198736 -0.38878021 0.47888824 11642230
-0.10389304 -0.38080937 0.48036274 12171142
-0.094619043 -0.38187113 0.4794271 11842434
-0.084662683 -0.38151667 0.47920576 13553053
-0.077722147 -0.38410357 0.48217002 12764051
-0.053901378 -0.38358101 0.48567188 14080424
-0.017978551 -0.38243347 0.48681566 14672819
0.14707415 -0.38447517 0.48344105 11774331
0.15490955 -0.38174173 0.4793517 13617562
0.16254637 -0.38161558 0.47647381 14867372
0.18543547 -0.38297015 0.47859609 11708536
-0.11048248 -0.37317601 0.48273134 13026711
-0.1051036 -0.37604678 0.48774901 10460015
-0.094664857 -0.37572548 0.48726925 10196841
-0.084771328 -0.37438592 0.48402041 14145449
-0.075507522 -0.37501639 0.48739055 13159068
-0.063944019 -0.37465009 0.49040198 14080939
-0.054401059 -0.37594756 0.4881295 13883559
-0.048455194 -0.37572005 0.49067289 13883816
-0.022220509 -0.3762278 0.49049577 13356702
-0.016825501 -0.37694687 0.49004212 13751973
0.0085720643 -0.3799324 0.48884097 12501650
0.013346648 -0.37831226 0.49003237 13423265
0.025441686 -0.37497693 0.49206755 13949866
0.035417207 -0.37491038 0.49162105 12896408
0.042295717 -0.37461305 0.49186176 14343853
0.11718822 -0.37493029 0.49289161 14078884
0.1220156 -0.37493029 0.49289161 14143907
0.13776806 -0.37541431 0.49106994 13486233
0.14485584 -0.37630448 0.4880248 14604457
0.15300041 -0.37416443 0.48445672 14078113
0.18922091 -0.37564072 0.48073548 12826506
0.19761296 -0.37373757 0.48967555 12695176
-0.14336269 -0.36877409 0.49272975 8819856
-0.10400875 -0.36794731 0.48946488 12960920
-0.095987745 -0.36780187 0.48899907 13290912
-0.085128859 -0.36801407 0.48707232 13685412
-0.073738202 -0.36728999 0.48945099 13619618
-0.066082507 -0.36759052 0.49013177 14672818
-0.054230299 -0.36778164 0.48904046 11711882
-0.046903629 -0.36765343 0.49418095 6974286
-0.02494208 -0.36763993 0.49338618 5922118
-0.014565206 -0.36772361 0.49329457 5921604
0.015698429 -0.36699328 0.4940221 9146223
0.025298435 -0.36762953 0.49449575 6645584
0.034815725 -0.3674973 0.49353534 6909009
0.044790287 -0.36705977 0.49190688 13817510
0.054694407 -0.36663514 0.49521637 14014632
0.065476343 -0.36667663 0.49486619 13488031
0.074455544 -0.36623865 0.4962506 13948326
0.094834678 -0.36758396 0.49592483 13553309
0.10516271 -0.36733693 0.49659127 14408361
0.11540646 -0.3675347 0.49457315 13618332
0.12477279 -0.36753193 0.49446765 14538921
0.13455774 -0.36771068 0.49296865 14078112
0.14409971 -0.36787552 0.48871568 14735787
0.15148047 -0.36800018 0.48692265 14866857
0.19784646 -0.3694419 0.48943171 13089423
0.20229995 -0.3669593 0.49476543 10000270
-0.02864323 -0.35991076 0.49590385 4081985
-0.01059292 -0.36001325 0.49424818 5592122
0.010033162 -0.35962021 0.49370861 11448712
0.02633504 -0.36029419 0.49583179 4674120
0.032967877 -0.36008006 0.49544188 4345412
0.049676467 -0.35962021 0.49370861 12895895
0.056015745 -0.35956994 0.49516481 14343596
0.064785913 -0.35938972 0.49509627 13620129
0.094705164 -0.35885566 0.49681196 13421466
0.1134626 -0.35894352 0.49585861 13881760
0.12600887 -0.35937265 0.49457476 14604972
0.13139518 -0.35915145 0.49440998 15460277
-0.071410514 -0.41148487 0.47615787 10920821
-0.064886712 -0.41145965 0.47454068 10789493
-0.05474681 -0.40955645 0.47099322 10657904
-0.044970479 -0.41006675 0.47126836 10526317
-0.035030346 -0.41111287 0.47034702 10328937
-0.024541102 -0.41283014 0.46914944 10197609
-0.01419673 -0.4129757 0.46752247 10328939
-0.0053432854 -0.41336736 0.46815544 10329195
0.0048056366 -0.41027349 0.4694182 10394985
0.015123103 -0.40967929 0.4693552 10460523
0.025460368 -0.41098565 0.46858427 10591851
0.035094932 -0.40973788 0.46865714 10723178
0.045012519 -0.4101972 0.46957526 10723179
0.055559956 -0.41135642 0.47086647 10788715
0.064814664 -0.41242933 0.47290656 10854764
0.074611664 -0.41258281 0.47443229 11183729
0.084680885 -0.41197857 0.47419056 11117680
0.09475483 -0.41103065 0.47322986 11051888
0.10395849 -0.41071364 0.47292203 10986094
0.11441199 -0.41043538 0.47191668 10985582
0.1248477 -0.41106004 0.47432438 11051119
-0.11769561 -0.40378392 0.47467345 10002061
-0.10338015 -0.40576133 0.4735547 11118973
-0.094606526 -0.40526938 0.47331607 10657134
-0.085564949 -0.4076741 0.47468153 10788463
-0.074770741 -0.40622863 0.47255072 10920304
-0.064904511 -0.40676305 0.47107327 10855284
-0.043795243 -0.40559715 0.46934482 10526316
-0.010754821 -0.39808187 0.47543058 12566924
-0.0048939921 -0.39808181 0.47543052 12699281
0.0062919436 -0.39967802 0.47429416 12764561
0.015187429 -0.40251327 0.47325701 12369289
0.025555898 -0.40287817 0.47405642 12830097
0.035314851 -0.40336803 0.47419393 12895890
0.045096722 -0.40403208 0.47497329 13093269
0.054977749 -0.40550941 0.47683543 12961427
0.064386554 -0.40687028 0.47846949 13356442
0.074032687 -0.4092575 0.47768575 13159064
0.085106589 -0.40961879 0.47749725 12697998
0.095020473 -0.4085415 0.47713327 12697997
0.10612704 -0.40674827 0.47775388 12960914
0.11498889 -0.40436983 0.47527626 12763278
0.12480537 -0.40293452 0.47449744 12499593
0.13434343 -0.40244716 0.47437015 11906942
0.14480542 -0.40179721 0.47684175 11446133
0.15423366 -0.40266868 0.48027316 11182704
0.16077705 -0.40386048 0.48233196 11379828
-0.14662622 -0.39623609 0.48850608 8423295
-0.071347512 -0.39119488 0.48172235 12566671
-0.064860798 -0.39192548 0.48211783 12303242
-0.056159765 -0.3908278 0.48141193 11974532
-0.044507902 -0.39260992 0.48223057 11645311
-0.034971636 -0.39322227 0.48218355 11645311
-0.024199542 -0.39179263 0.4809241 11842432
-0.014534413 -0.39399421 0.47987127 12171912
-0.0051267827 -0.39478251 0.48030654 10987126
0.0045751208 -0.39523673 0.48085654 11447678
0.014191147 -0.39696065 0.48273534 12632976
0.024127377 -0.40092447 0.48321807 11250039
0.036652092 -0.39966685 0.48387828 12039300
0.044769306 -0.3992486 0.48439214 11907712
0.053725526 -0.40229294 0.48351556 9406552
0.062669635 -0.40258974 0.48336101 10591597
0.10815424 -0.40075812 0.48476851 10854257
0.11487358 -0.3988426 0.48529348 12367751
0.12509844 -0.39762092 0.48370126 11906688
0.13481496 -0.39532059 0.48114768 13552026
0.14303556 -0.39378685 0.47951451 13946529
0.15533026 -0.39786205 0.47782469 11577462
0.16482253 -0.39806509 0.48036939 11379570
0.17405419 -0.39592335 0.48168215 11576694
0.18492894 -0.3929947 0.48341042 11773817
-0.14681375 -0.3901456 0.48700431 8753293
-0.072958112 -0.38785315 0.48742023 10130792
-0.065337576 -0.38966912 0.48945105 9472605
-0.055294383 -0.3869752 0.48557702 12632464
-0.045919534 -0.38985038 0.48903492 12040586
-0.033381872 -0.39148271 0.49024013 11382655
-0.024551645 -0.38761815 0.48687086 11908486
-0.014759053 -0.38728893 0.48633161 12764564
-0.0051451353 -0.38859871 0.48810238 10987126
0.0045709768 -0.38758647 0.48682526 11974792
0.014134093 -0.38867104 0.48844832 13159836
0.022386355 -0.38874727 0.49346745 11711618
0.037010621 -0.38960215 0.49248642 12830100
0.043224275 -0.39068323 0.49220207 14015143
0.066848285 -0.38896468 0.4943943 13487774
0.070845254 -0.3886117 0.49468017 14474670
0.093191944 -0.3886117 0.49468017 13816994
0.10911115 -0.38925689 0.49338561 13091733
0.11486564 -0.39052284 0.49023438 13223318
0.12533736 -0.39090225 0.49099007 11182705
0.13502955 -0.38830501 0.48772934 12630410
0.142443 -0.38680905 0.48503211 10655338
0.18869762 -0.38952431 0.48407602 11708537
-0.14989646 -0.38734099 0.49570918 8687499
-0.072039649 -0.38151866 0.49115047 11974023
-0.065361075 -0.38173908 0.49191251 12500880
-0.058611777 -0.38165492 0.48930475 12369549
-0.044171687 -0.38137525 0.49391338 11908999
-0.034264971 -0.38171962 0.49589407 11909255
-0.026004905 -0.38039029 0.49164683 12238221
-0.012628029 -0.37982318 0.4914788 12698772
-0.0051440364 -0.38109836 0.49430719 14212782
0.0044537308 -0.37998271 0.49297947 13225886
0.015529875 -0.37901634 0.49197426 12435601
0.02554952 -0.38169315 0.4937931 13751974
0.035188958 -0.38146794 0.49250767 13027993
0.045340575 -0.38148803 0.49419898 13883044
0.055093538 -0.38152373 0.4968816 14541231
0.064904556 -0.3821317 0.49579766 13356446
0.094728976 -0.38180417 0.49538824 13619616
0.10557435 -0.38187787 0.49601015 14671277
0.11473413 -0.38009295 0.49282151 13552795
0.12504406 -0.38076025 0.49362057 14736557
0.13398455 -0.38031134 0.49209237 13551769
0.14074759 -0.38179877 0.48861638 14078113
0.19941099 -0.3792606 0.49324527 12300419
-0.028483829 -0.37386596 0.49504024 12764827
-0.011120693 -0.37371674 0.49573296 7105617
0.012281515 -0.37333623 0.49635175 6645838
0.025886221 -0.37387875 0.49538076 13291682
0.048368145 -0.37448472 0.49496812 13027479
0.063970789 -0.37410548 0.49643943 13553824
0.094612345 -0.37403563 0.49529874 13487773
0.10501509 -0.37368712 0.49641824 14737069
0.11187324 -0.37376225 0.49542692 13815967
0.12785375 -0.37405568 0.49488649 15525045
0.13188308 -0.37428346 0.49470213 14801320
-0.012526392 -0.42535588 0.4769887 10263924
-0.0074199624 -0.42523926 0.47685793 10264178
-0.10469197 -0.41704547 0.48259246 8489854
-0.093993053 -0.41737258 0.48297095 12699551
-0.082218841 -0.41549185 0.48079461 10657652
-0.075434558 -0.41364694 0.47846532 10855028
-0.064690225 -0.41583869 0.47777918 10789752
-0.054807182 -0.41616243 0.47623044 10592115
-0.044589173 -0.41647398 0.476446 10526061
-0.035404216 -0.41847917 0.47606993 10197353
-0.025013065 -0.42074302 0.47552353 10132074
-0.016117591 -0.41949919 0.4728848 10328685
-0.003342174 -0.42007297 0.4735316 10329197
0.0039580069 -0.41943339 0.47585818 10329450
0.015199065 -0.4193587 0.47570091 10394987
0.02363858 -0.42117789 0.47560024 10394730
0.034408711 -0.41946551 0.47432762 10591593
0.045978963 -0.41844422 0.47416809 10591593
0.057184726 -0.42164093 0.47604027 10591594
0.065125011 -0.42104387 0.47586197 10657131
0.075436339 -0.41873428 0.47543442 10722666
0.084568284 -0.41932416 0.47651672 10722923
0.094700232 -0.41823211 0.47616282 10788204
0.10564424 -0.41829929 0.47750247 10854253
0.11455016 -0.41848221 0.47781286 10985583
0.12512441 -0.41689432 0.47831833 11117169
0.13381553 -0.41579553 0.48025915 11116913
-0.13545606 -0.41028357 0.48871154 8555655
-0.10725552 -0.41180834 0.4790414 12568483
-0.092864431 -0.41108373 0.47819847 10854512
0.067894839 -0.4057419 0.48245275 12566412
0.075551569 -0.40788016 0.48240656 13356185
0.08502537 -0.40806833 0.48303235 13224342
0.094743542 -0.40701669 0.48303604 13421721
0.10246447 -0.40625927 0.48291716 13816480
0.13766868 -0.41151848 0.47870418 11182449
0.14470194 -0.41174865 0.48193046 11182192
0.1550332 -0.4083958 0.48408213 11248241
0.16500255 -0.4080354 0.48667181 11444850
-0.15061845 -0.40253559 0.4962725 8883846
-0.14407271 -0.40556732 0.4912439 8687753
0.018558098 -0.39734173 0.48921925 10197094
0.024854401 -0.40050578 0.48980415 11645569
0.033363272 -0.39975908 0.48951355 10657392
0.047763523 -0.39833805 0.48912019 10459497
0.05583458 -0.40086088 0.48866275 9340505
0.065405615 -0.4009774 0.48790163 12632209
0.075038992 -0.40309504 0.49013034 10854768
0.085157253 -0.40420043 0.49198991 10591340
0.095281512 -0.40249255 0.48968264 11841664
0.10415906 -0.40087438 0.48816288 9735262
0.16696422 -0.40370986 0.48470584 11379313
0.17418465 -0.4051497 0.48827323 11576693
0.18357298 -0.40492809 0.49076071 12564618
0.19309975 -0.40219632 0.49397367 13025436
-0.15139519 -0.39392498 0.49688709 9016208
-0.14896847 -0.39684916 0.49186996 8752526
-0.041337814 -0.39149928 0.49448663 10197355
-0.037136029 -0.39143375 0.49478483 10131560
0.018562514 -0.39533538 0.49103698 9801825
0.024968935 -0.39486507 0.49487934 10328424
0.033735935 -0.39493179 0.49381721 11118454
0.047256518 -0.39362019 0.49334115 13224858
0.055673763 -0.3943572 0.49532947 13553824
0.065035224 -0.39392835 0.49362043 13093273
0.075391099 -0.39452553 0.49564368 12698001
0.085309781 -0.39549452 0.49654028 12105349
0.095136821 -0.39405632 0.49456039 13619358
0.10456493 -0.39395514 0.49448374 13553052
0.19733661 -0.39670604 0.49563169 12629387
-0.040439375 -0.38826475 0.49689138 9407579
0.04927776 -0.38779262 0.49695203 13093276
-0.026441906 -0.43243548 0.48492768 10463098
-0.015468003 -0.42790025 0.47933552 9935734
-0.0030017728 -0.42818478 0.47984496 10263923
0.019080756 -0.43176913 0.48418045 10263659
0.020733226 -0.43110281 0.48343322 10328939
0.034177296 -0.43093622 0.48324639 10526059
0.049402036 -0.43176913 0.48418045 10592111
0.056158874 -0.43073934 0.48302564 10723182
0.063053459 -0.43010336 0.48231247 10723439
0.073535115 -0.4316951 0.48409742 10789489
-0.11086649 -0.42162481 0.48789153 8096644
-0.10458556 -0.42232025 0.48740882 8425091
