# .PCD v0.7 - Point Cloud Data file format
VERSION 0.7
FIELDS x y z rgba
SIZE 4 4 4 4
TYPE F F F U
COUNT 1 1 1 1
WIDTH 1103
HEIGHT 1
VIEWPOINT 0 0 0 1 0 0 0
POINTS 1103
DATA ascii
-0.0024814904 -0.51762646 0.4881601 16711680
-0.0074905455 -0.51788968 0.48819897 16711680
-0.012983523 -0.51845485 0.48813227 16711680
-0.017820798 -0.51860607 0.48839787 16711680
-0.022261143 -0.51797634 0.48855069 16711680
-0.027317517 -0.51810557 0.48900953 16711680
-0.032609791 -0.5180316 0.48942313 16711680
-0.037370555 -0.51785713 0.48993441 16711680
-0.042140678 -0.51710844 0.49036703 16711680
-0.047333106 -0.51758528 0.49035618 16711680
-0.052339621 -0.51790261 0.49014732 16711680
-0.057564348 -0.51790261 0.49014732 16711680
-0.062674448 -0.51798427 0.48968115 16711680
-0.067598015 -0.51824051 0.48898587 16711680
-0.072564915 -0.51816201 0.48906335 16711680
-0.077642992 -0.51809645 0.48906121 16711680
-0.082580552 -0.51803291 0.48902115 16711680
-0.087431937 -0.51795048 0.48912963 16711680
-0.092566982 -0.51805884 0.48926774 16711680
-0.097607151 -0.5182274 0.48950204 16711680
-0.10247652 -0.51805919 0.48926803 16711680
-0.10748135 -0.51796114 0.48942342 16711680
-0.11239201 -0.51785439 0.4896746 16711680
-0.11763535 -0.51791173 0.49009565 16711680
-0.12257722 -0.51813543 0.49001953 16711680
-0.12745853 -0.51748616 0.48973724 16711680
-0.13248952 -0.51718724 0.48981068 16711680
-0.13761593 -0.51794899 0.48955187 16711680
-0.14231928 -0.51792228 0.48879203 16711680
-0.1472538 -0.51809657 0.48906121 16711680
-0.15233247 -0.51766974 0.48994276 16711680
-0.15736136 -0.51724643 0.49029413 16711680
-0.1624434 -0.51746303 0.49085745 16711680
-0.16759694 -0.51781809 0.49128655 16711680
-0.1720071 -0.51858854 0.49164465 16711680
-0.17650153 -0.51878726 0.49231657 16711680
0.34551424 -0.52289522 0.49034819 16711680
0.34244731 -0.52283722 0.49069473 16711680
0.33745149 -0.5227223 0.4907023 16711680
0.3332254 -0.52273971 0.49021146 16711680
0.32765034 -0.52203596 0.48951373 16711680
0.32453087 -0.52180642 0.48939165 16711680
0.31738207 -0.52238023 0.48969677 16711680
0.3117497 -0.52218896 0.48959509 16711680
0.30691743 -0.522654 0.49029526 16711680
0.30241984 -0.52207673 0.49074343 16711680
0.29770023 -0.52197385 0.49061325 16711680
0.29290754 -0.52223021 0.48984352 16711680
0.28878689 -0.52180642 0.48939165 16711680
0.28163809 -0.52180642 0.48939165 16711680
0.26669061 -0.52180642 0.48939165 16711680
0.26279128 -0.52180642 0.48939165 16711680
0.25109327 -0.52180642 0.48939165 16711680
0.24719392 -0.52180642 0.48939165 16711680
0.24176702 -0.52227306 0.48980162 16711680
0.23791246 -0.52215964 0.49025902 16711680
0.23289631 -0.52180642 0.48939165 16711680
0.22769721 -0.52180642 0.48939165 16711680
0.22249809 -0.52180642 0.48939165 16711680
0.21729895 -0.52180642 0.48939165 16711680
0.21209984 -0.52180642 0.48939165 16711680
0.20755062 -0.52180642 0.48939165 16711680
0.20300138 -0.52180642 0.48939165 16711680
0.19780226 -0.52180642 0.48939165 16711680
0.19260313 -0.52180642 0.48939165 16711680
0.1679073 -0.52180642 0.48939165 16711680
0.16270819 -0.52180642 0.48939165 16711680
0.15750907 -0.52180642 0.48939165 16711680
0.15230995 -0.52180642 0.48939165 16711680
0.14711082 -0.52180642 0.48939165 16711680
0.09771917 -0.52180642 0.48939165 16711680
0.092520051 -0.52180642 0.48939165 16711680
0.088620707 -0.52180642 0.48939165 16711680
0.077572569 -0.52180642 0.48939165 16711680
0.073023342 -0.52180642 0.48939165 16711680
0.068474106 -0.52180642 0.48939165 16711680
-0.023160405 -0.52180642 0.48939165 16711680
-0.027059756 -0.52180642 0.48939165 16711680
-0.0327252 -0.52215958 0.48976818 16711680
-0.037966765 -0.52237666 0.49056605 16711680
-0.04259336 -0.52220356 0.49073538 16711680
-0.047234751 -0.52192324 0.49033472 16711680
-0.052134 -0.5222227 0.49009845 16711680
-0.056745872 -0.52224791 0.48994997 16711680
-0.061503947 -0.52180642 0.48939165 16711680
-0.07255207 -0.52180648 0.48939165 16711680
-0.077361271 -0.52203596 0.48951373 16711680
-0.082950309 -0.52180648 0.48939165 16711680
-0.087499529 -0.52180648 0.48939165 16711680
-0.092048779 -0.52180648 0.48939165 16711680
-0.097247899 -0.52180648 0.48939165 16711680
-0.10244703 -0.52180648 0.48939165 16711680
-0.10797456 -0.52227306 0.48980162 16711680
-0.11271863 -0.52238667 0.49018553 16711680
-0.11757626 -0.52229208 0.49021617 16711680
-0.12243591 -0.52219754 0.49024674 16711680
-0.1278666 -0.52241826 0.49069849 16711680
-0.13249747 -0.52297962 0.49108502 16711680
-0.1373937 -0.5228616 0.4909595 16711680
-0.14269271 -0.52360755 0.49057582 16711680
-0.14766057 -0.52348435 0.49081227 16711680
-0.15254034 -0.52274108 0.49082127 16711680
-0.15748189 -0.52220333 0.4907352 16711680
-0.16253063 -0.52233011 0.49072716 16711680
-0.16763698 -0.52270406 0.4910644 16711680
-0.17258251 -0.52273041 0.49131367 16711680
-0.17617814 -0.52223653 0.49146077 16711680
-0.14728944 -0.52639699 0.49183252 16711680
-0.17068549 -0.52639699 0.49183252 16711680
0.341111 -0.50269449 0.48942277 16711680
0.33736715 -0.50225407 0.48886499 16711680
0.33256477 -0.50184423 0.48851767 16711680
0.3274861 -0.5023753 0.4888756 16711680
0.32222122 -0.50226933 0.48897025 16711680
0.31770694 -0.50221574 0.48860195 16711680
0.31240007 -0.50277871 0.48843798 16711680
0.30773187 -0.50238752 0.48855183 16711680
0.3022061 -0.50244564 0.48853543 16711680
0.29764903 -0.50290394 0.48840156 16711680
0.29290622 -0.50228417 0.48871925 16711680
0.28730506 -0.50279993 0.48891255 16711680
0.28260499 -0.50283504 0.4887425 16711680
0.27815437 -0.50274724 0.48916766 16711680
0.27429056 -0.50269449 0.48942277 16711680
0.26635152 -0.50269449 0.48942277 16711680
0.26238197 -0.50269449 0.48942277 16711680
0.25702617 -0.5023402 0.48904571 16711680
0.25245816 -0.50269449 0.48942277 16711680
0.24145575 -0.50245512 0.48901239 16711680
0.23719853 -0.50259781 0.48849049 16711680
0.23331188 -0.50287783 0.48852929 16711680
0.22996417 -0.50269449 0.48942277 16711680
0.21690369 -0.5023402 0.48904571 16711680
0.21201409 -0.50203228 0.48844144 16711680
0.20762382 -0.50250739 0.4878132 16711680
0.20313019 -0.50256026 0.488502 16711680
0.19953111 -0.50269449 0.48942277 16711680
0.18194205 -0.50245512 0.48901239 16711680
0.17724442 -0.50183702 0.48803416 16711680
0.17232978 -0.50200808 0.48786238 16711680
0.16738492 -0.50216967 0.48809823 16711680
0.16280578 -0.50245148 0.48808548 16711680
0.15796438 -0.50230569 0.48816434 16711680
0.15247235 -0.5022158 0.48860195 16711680
0.14719863 -0.50161427 0.48837653 16711680
0.14285532 -0.50214255 0.48809966 16711680
0.13784254 -0.50234729 0.487964 16711680
0.13256055 -0.50234729 0.487964 16711680
0.12728763 -0.50233382 0.48802766 16711680
0.12205046 -0.50166762 0.48812166 16711680
0.11742541 -0.50166756 0.48812172 16711680
0.11291604 -0.5019967 0.48791912 16711680
0.10760354 -0.50214916 0.48800018 16711680
0.10253914 -0.50225437 0.48886523 16711680
0.096984938 -0.50269455 0.48942277 16711680
0.092023022 -0.50240242 0.4892675 16711680
0.087262526 -0.50246096 0.488269 16711680
0.082527809 -0.50243729 0.48815343 16711680
0.077419728 -0.50242215 0.48845431 16711680
0.073167764 -0.50269455 0.48942277 16711680
0.061259173 -0.50269455 0.48942277 16711680
0.057951231 -0.50269455 0.48942277 16711680
0.038103584 -0.50269455 0.48942277 16711680
0.0063473471 -0.50269455 0.48942277 16711680
0.0021235347 -0.502904 0.48840162 16711680
-0.0021211803 -0.50290382 0.48840144 16711680
-0.0072367191 -0.50277871 0.48843792 16711680
-0.012879416 -0.50277871 0.48843792 16711680
-0.017571919 -0.50290394 0.48840162 16711680
-0.022043474 -0.50218064 0.48877206 16711680
-0.026070476 -0.50269455 0.48942277 16711680
-0.099506781 -0.50269455 0.48942277 16711680
-0.10281454 -0.50262862 0.48848167 16711680
-0.10704622 -0.50231153 0.48876616 16711680
-0.11009219 -0.50269455 0.48942277 16711680
-0.1325862 -0.50269455 0.48942277 16711680
-0.13589413 -0.50269455 0.48942277 16711680
0.35037324 -0.50503111 0.49066517 16711680
0.34745708 -0.50669527 0.48999277 16711680
0.34246311 -0.50661951 0.48984072 16711680
0.33735839 -0.50661629 0.4891763 16711680
0.33240944 -0.50652349 0.4885644 16711680
0.32743785 -0.50677383 0.48838291 16711680
0.32267684 -0.50668949 0.48880497 16711680
0.31747669 -0.5068363 0.48840621 16711680
0.31221315 -0.50751746 0.48788169 16711680
0.30733556 -0.50677407 0.48838308 16711680
0.30244529 -0.50672638 0.48862192 16711680
0.29721493 -0.50719553 0.48841837 16711680
0.2926259 -0.50636816 0.48840323 16711680
0.28736126 -0.50615054 0.48828742 16711680
0.28261346 -0.50608832 0.48835239 16711680
0.27755693 -0.50636411 0.48829088 16711680
0.272614 -0.50663358 0.48908231 16711680
0.26766253 -0.50653982 0.48955992 16711680
0.26241958 -0.50672984 0.48894569 16711680
0.25746143 -0.5067063 0.4887245 16711680
0.2527906 -0.50652236 0.48964599 16711680
0.24760252 -0.50574243 0.49033555 16711680
0.24250606 -0.50635684 0.4896712 16711680
0.23762155 -0.50719494 0.48855123 16711680
0.23236108 -0.506881 0.48825118 16711680
0.22769943 -0.5066874 0.48911902 16711680
0.2223911 -0.50656235 0.48944065 16711680
0.21747172 -0.50659192 0.48929653 16711680
0.2126662 -0.50694513 0.48828521 16711680
0.2068001 -0.506742 0.48727116 16711680
0.20208552 -0.5067628 0.48843995 16711680
0.1975646 -0.50678325 0.48977205 16711680
0.19208696 -0.50633466 0.49060318 16711680
0.18746194 -0.5063346 0.49060324 16711680
0.1825223 -0.50639617 0.48960271 16711680
0.17744496 -0.50702804 0.48840478 16711680
0.17251989 -0.50751001 0.48813263 16711680
0.16761382 -0.50758743 0.48817369 16711680
0.162433 -0.50753033 0.48781779 16711680
0.15714359 -0.50726676 0.48818973 16711680
0.152145 -0.50668603 0.48882702 16711680
0.147504 -0.50672626 0.4886218 16711680
0.1426793 -0.50707763 0.48829278 16711680
0.13747752 -0.50694638 0.48753086 16711680
0.13225284 -0.50747907 0.48807362 16711680
0.12719749 -0.50724703 0.48859677 16711680
0.12239918 -0.50656223 0.48908827 16711680
0.11770991 -0.5068329 0.48916933 16711680
0.1125697 -0.50741565 0.48839387 16711680
0.10729258 -0.50745386 0.48820183 16711680
0.10214105 -0.5065738 0.48939022 16711680
0.097396947 -0.50631803 0.48986295 16711680
0.09281031 -0.50669515 0.48946366 16711680
0.087743886 -0.50703245 0.48852041 16711680
0.08230792 -0.50750482 0.48794582 16711680
0.076927356 -0.50698793 0.48874846 16711680
0.072483212 -0.50650924 0.48971447 16711680
0.067867145 -0.50648171 0.48985091 16711680
0.062591031 -0.50653261 0.48959479 16711680
0.05732011 -0.50661391 0.48918507 16711680
0.052329924 -0.50624609 0.49017856 16711680
0.047290571 -0.50688028 0.49020693 16711680
0.042693563 -0.50695515 0.4897562 16711680
0.037533261 -0.50654215 0.48954335 16711680
0.032331128 -0.50632042 0.48997971 16711680
0.027567267 -0.50633466 0.49060318 16711680
0.022717912 -0.50609708 0.49017021 16711680
0.017748736 -0.50653201 0.48959443 16711680
0.012530059 -0.50664347 0.48903081 16711680
0.0073224418 -0.50675637 0.48846802 16711680
0.002298981 -0.50672519 0.4876456 16711680
-0.0025614053 -0.50734329 0.48787919 16711680
-0.0072100237 -0.50725448 0.48824987 16711680
-0.012245424 -0.50724238 0.48831001 16711680
-0.01772923 -0.50725448 0.48824987 16711680
-0.022605479 -0.50695294 0.48862246 16711680
-0.027401544 -0.50655258 0.48914936 16711680
-0.032240123 -0.50676441 0.4891884 16711680
-0.037624843 -0.50713575 0.48980221 16711680
-0.042609036 -0.50730973 0.48985425 16711680
-0.047447219 -0.50654411 0.48989657 16711680
-0.052359685 -0.50647986 0.48986247 16711680
-0.057379551 -0.50660866 0.4898946 16711680
-0.062454998 -0.50689662 0.49026307 16711680
-0.067329422 -0.50620425 0.49060938 16711680
-0.072270766 -0.50711006 0.48993018 16711680
-0.077413484 -0.50694823 0.49009898 16711680
-0.082467839 -0.50692123 0.49023554 16711680
-0.087804183 -0.50698221 0.49105546 16711680
-0.092515275 -0.50688434 0.49108437 16711680
-0.097682148 -0.50670791 0.489795 16711680
-0.10217154 -0.50694495 0.48828515 16711680
-0.10736309 -0.50664341 0.48865774 16711680
-0.11224422 -0.50663352 0.48944077 16711680
-0.11698844 -0.50629622 0.49029234 16711680
-0.12235469 -0.50636828 0.49043229 16711680
-0.12771679 -0.50665104 0.48967865 16711680
-0.13267311 -0.50663418 0.48908255 16711680
-0.13771763 -0.50656199 0.48985109 16711680
-0.1423617 -0.50712478 0.49032226 16711680
-0.14768374 -0.50763428 0.49053928 16711680
-0.15228309 -0.50730222 0.49059859 16711680
-0.15767851 -0.50667846 0.4910377 16711680
-0.16218968 -0.50656712 0.49105719 16711680
-0.16713376 -0.50701189 0.49152967 16711680
-0.17272253 -0.50736773 0.49190757 16711680
0.34655526 -0.51095611 0.48928532 16711680
0.34222311 -0.51107198 0.48934695 16711680
0.3372533 -0.51098919 0.48930296 16711680
0.33369008 -0.51049244 0.4890388 16711680
0.32121867 -0.51049244 0.4890388 16711680
0.31728032 -0.51049244 0.4890388 16711680
0.31268561 -0.51049244 0.4890388 16711680
0.30717194 -0.51095611 0.48928532 16711680
0.30310231 -0.51141971 0.4895319 16711680
0.29857323 -0.51078224 0.48919281 16711680
0.27198946 -0.51049244 0.4890388 16711680
0.26739472 -0.51107204 0.48934701 16711680
0.26258123 -0.5108788 0.48924425 16711680
0.2575489 -0.51049244 0.4890388 16711680
0.25212798 -0.51068383 0.48951808 16711680
0.24739881 -0.5112955 0.49033192 16711680
0.24254012 -0.51160228 0.48991206 16711680
0.2374634 -0.51141971 0.4895319 16711680
0.23260614 -0.51049244 0.4890388 16711680
0.22761756 -0.51072431 0.48916206 16711680
0.22276028 -0.51107198 0.48934695 16711680
0.21777172 -0.51141971 0.4895319 16711680
0.21357085 -0.51049244 0.4890388 16711680
0.20109944 -0.51049244 0.4890388 16711680
0.19729033 -0.51068312 0.48970649 16711680
0.1927553 -0.51063329 0.48996314 16711680
0.18749696 -0.51092309 0.49011722 16711680
0.18241304 -0.51076883 0.48981497 16711680
0.17779765 -0.51078224 0.48919281 16711680
0.17287472 -0.5104925 0.4890388 16711680
0.16565445 -0.5104925 0.4890388 16711680
0.16215371 -0.5104925 0.4890388 16711680
0.15712139 -0.5104925 0.4890388 16711680
0.15236256 -0.51150668 0.4895781 16711680
0.14858831 -0.51115477 0.489391 16711680
0.13086581 -0.5104925 0.4890388 16711680
0.12758388 -0.51107198 0.48934695 16711680
0.12298915 -0.51107204 0.48934701 16711680
0.11773804 -0.51107204 0.48934701 16711680
0.11288075 -0.51072431 0.48916206 16711680
0.1072358 -0.5104925 0.4890388 16711680
0.10150107 -0.51119226 0.48955247 16711680
0.097411349 -0.51158589 0.48999777 16711680
0.092795245 -0.51165152 0.48965511 16711680
0.087762929 -0.51126522 0.48944971 16711680
0.08203046 -0.51141977 0.4895319 16711680
0.077041909 -0.51165158 0.48965517 16711680
0.072450876 -0.51218188 0.49022022 16711680
0.067853838 -0.51161873 0.48982641 16711680
0.062882662 -0.51098919 0.48930296 16711680
0.057350233 -0.51107204 0.48934695 16711680
0.051898617 -0.51043534 0.48993513 16711680
0.047678206 -0.51073855 0.48965499 16711680
0.043303508 -0.51072431 0.48916206 16711680
0.037264727 -0.51072431 0.48916206 16711680
0.031959351 -0.51114011 0.48989794 16711680
0.027095363 -0.51091075 0.49018148 16711680
0.022635829 -0.51112175 0.48999116 16711680
0.018360719 -0.51072431 0.48916206 16711680
-0.024698399 -0.5104925 0.4890388 16711680
-0.026011184 -0.5104925 0.4890388 16711680
-0.033887848 -0.5104925 0.4890388 16711680
-0.037607402 -0.51087886 0.48924425 16711680
-0.042683467 -0.51141977 0.4895319 16711680
-0.047757231 -0.51179957 0.48990807 16711680
-0.052961826 -0.51161873 0.48982641 16711680
-0.057517856 -0.51107204 0.48934695 16711680
-0.06255278 -0.51058549 0.48988101 16711680
-0.067625821 -0.5102939 0.49006578 16711680
-0.072220981 -0.51072431 0.48916206 16711680
-0.077865928 -0.5104925 0.4890388 16711680
-0.082936153 -0.51010305 0.48939797 16711680
-0.087357119 -0.51029372 0.49006566 16711680
-0.092598274 -0.51088572 0.49030969 16711680
-0.097345963 -0.51117593 0.48971114 16711680
-0.10083954 -0.5104925 0.4890388 16711680
-0.11265454 -0.5104925 0.4890388 16711680
-0.11776343 -0.51094437 0.49000713 16711680
-0.12261611 -0.51105565 0.49009326 16711680
-0.12701476 -0.5106011 0.48942015 16711680
-0.13300262 -0.5104925 0.4890388 16711680
-0.13759734 -0.51078224 0.48919281 16711680
-0.14219207 -0.5104925 0.4890388 16711680
-0.14744318 -0.5104925 0.4890388 16711680
-0.15315272 -0.51076835 0.48981467 16711680
-0.15775463 -0.51120257 0.49081543 16711680
-0.16245067 -0.51122302 0.49147996 16711680
-0.16734551 -0.510373 0.49204925 16711680
-0.17262207 -0.51042199 0.49275288 16711680
-0.17778438 -0.51053458 0.49283627 16711680
-0.18022054 -0.50853604 0.49252877 16711680
-0.16356638 -0.51467919 0.49164245 16711680
-0.16736467 -0.51445431 0.49171159 16711680
-0.17272572 -0.51545823 0.49237618 16711680
-0.17718337 -0.51541436 0.49261412 16711680
0.34181905 -0.49220225 0.48950681 16711680
0.33781052 -0.49220225 0.48950681 16711680
0.32578495 -0.49220225 0.48950681 16711680
0.32227796 -0.49168873 0.48885629 16711680
0.31758299 -0.49169829 0.4888142 16711680
0.31375933 -0.49220225 0.48950681 16711680
0.29572099 -0.49220225 0.48950681 16711680
0.29438484 -0.49220225 0.48950681 16711680
0.26098049 -0.49220225 0.48950681 16711680
0.25764003 -0.49161237 0.48919317 16711680
0.25329748 -0.4919073 0.48934999 16711680
0.22156332 -0.49220225 0.48950681 16711680
0.2182229 -0.49220225 0.48950681 16711680
0.18214621 -0.49220225 0.48950681 16711680
0.17813767 -0.49220225 0.48950681 16711680
0.17279299 -0.49220225 0.48950681 16711680
0.15074611 -0.49220225 0.48950681 16711680
0.14707163 -0.4919073 0.48934999 16711680
0.14272906 -0.49161237 0.48919317 16711680
0.13778521 -0.49196631 0.48938134 16711680
0.13404393 -0.49220225 0.48950681 16711680
0.11667366 -0.49220225 0.48950681 16711680
0.11266513 -0.49220225 0.48950681 16711680
0.10798852 -0.49220225 0.48950681 16711680
0.091286346 -0.49220228 0.48950681 16711680
0.089282081 -0.49220228 0.48950681 16711680
0.07658843 -0.49220228 0.48950681 16711680
0.072579905 -0.49220228 0.48950681 16711680
0.067903295 -0.49220228 0.48950681 16711680
0.04117981 -0.49161237 0.48919317 16711680
0.037033774 -0.49091151 0.48847207 16711680
0.032510486 -0.49048993 0.48831317 16711680
0.029488284 -0.49131745 0.48903635 16711680
-0.10245892 -0.49220228 0.48950681 16711680
-0.10646746 -0.49220228 0.48950681 16711680
0.35188383 -0.49630147 0.49123338 16711680
0.34733376 -0.49565533 0.49077651 16711680
0.34229389 -0.49548736 0.48977253 16711680
0.33734256 -0.49551234 0.48922822 16711680
0.33251047 -0.49553046 0.48953989 16711680
0.32768762 -0.49548429 0.48955306 16711680
0.32256591 -0.49554065 0.48929998 16711680
0.31723893 -0.49554086 0.48929998 16711680
0.31264216 -0.49544138 0.49017742 16711680
0.30749571 -0.49596229 0.49037352 16711680
0.30226865 -0.4956252 0.48991117 16711680
0.29754853 -0.49543715 0.48956582 16711680
0.29269248 -0.49545681 0.48987827 16711680
0.28760344 -0.49537337 0.49006042 16711680
0.28270888 -0.49590769 0.49062762 16711680
0.27727282 -0.49541724 0.4904612 16711680
0.27249599 -0.4957563 0.49071696 16711680
0.26775199 -0.49606964 0.49043062 16711680
0.26259956 -0.49537337 0.49006042 16711680
0.25730926 -0.49534881 0.48931929 16711680
0.25265262 -0.49548757 0.48974356 16711680
0.24792965 -0.49562612 0.49019477 16711680
0.24241552 -0.49579835 0.4901993 16711680
0.23741713 -0.49524087 0.49006543 16711680
0.23256773 -0.49538743 0.49059638 16711680
0.22752909 -0.49555701 0.49072424 16711680
0.22266977 -0.49531782 0.49031398 16711680
0.21739101 -0.49525598 0.48999795 16711680
0.21254885 -0.4954046 0.48991516 16711680
0.2077333 -0.49553546 0.48992011 16711680
0.20261072 -0.49594399 0.49045816 16711680
0.19740446 -0.49583346 0.49096563 16711680
0.19236228 -0.49537277 0.49106678 16711680
0.18748286 -0.49555698 0.4907243 16711680
0.1826278 -0.49534518 0.4895924 16711680
0.17744541 -0.49563074 0.48868713 16711680
0.17249337 -0.4956938 0.48879626 16711680
0.16764814 -0.49563879 0.48944643 16711680
0.1625098 -0.49545616 0.48967972 16711680
0.15732032 -0.49532932 0.48965946 16711680
0.15266602 -0.49566272 0.48943022 16711680
0.14777023 -0.49556863 0.4891732 16711680
0.14246441 -0.49554068 0.48929998 16711680
0.13741781 -0.49538025 0.48917422 16711680
0.13261968 -0.49563387 0.48906639 16711680
0.12766862 -0.49568275 0.48924336 16711680
0.12250374 -0.49551231 0.48942646 16711680
0.11714453 -0.49558207 0.48910961 16711680
0.11245649 -0.49565127 0.48879245 16711680
0.10777944 -0.49570739 0.48853919 16711680
0.10254681 -0.49544284 0.48974344 16711680
0.097228758 -0.49540117 0.48993358 16711680
0.09254235 -0.49548459 0.48955318 16711680
0.087878466 -0.49548423 0.48955306 16711680
0.082549848 -0.49548399 0.48955294 16711680
0.077218093 -0.49551237 0.4894264 16711680
0.07255511 -0.49552238 0.4893845 16711680
0.067895316 -0.49544376 0.48974386 16711680
0.062696069 -0.49546129 0.49025813 16711680
0.057406414 -0.49600947 0.49070743 16711680
0.05388429 -0.49644148 0.49119452 16711680
0.04652451 -0.49574158 0.49138871 16711680
0.042403385 -0.49537295 0.49066415 16711680
0.037238963 -0.49543011 0.48980746 16711680
0.032578997 -0.49544865 0.48972294 16711680
0.027871508 -0.49531829 0.49031422 16711680
0.02271153 -0.49553087 0.49062952 16711680
0.017183103 -0.49587053 0.49079654 16711680
0.012669876 -0.49599937 0.49095944 16711680
0.0081253946 -0.49654144 0.49116686 16711680
0.0024916232 -0.49644148 0.49119452 16711680
-0.0028262436 -0.49640447 0.49035695 16711680
-0.0072646439 -0.49613741 0.49032506 16711680
-0.012059592 -0.49633116 0.49069545 16711680
-0.017450482 -0.49596271 0.49037376 16711680
-0.022773296 -0.49564183 0.49012223 16711680
-0.027453519 -0.49596286 0.49037382 16711680
-0.03140416 -0.49597156 0.49108633 16711680
-0.0435609 -0.49644148 0.49119452 16711680
-0.047200069 -0.49634153 0.49122229 16711680
-0.05175478 -0.49667478 0.49112985 16711680
-0.056910299 -0.49644148 0.49119452 16711680
-0.063709885 -0.49574161 0.49138871 16711680
-0.067225978 -0.49634153 0.49122229 16711680
-0.07194148 -0.49602154 0.4913111 16711680
-0.076403543 -0.49574161 0.49138871 16711680
-0.083011404 -0.49609154 0.49129161 16711680
-0.088020101 -0.49609154 0.49129167 16711680
-0.09258233 -0.49606556 0.49110791 16711680
-0.097640857 -0.49546188 0.49025843 16711680
-0.10263556 -0.49548513 0.48955354 16711680
-0.10746573 -0.49564639 0.4895086 16711680
-0.11222138 -0.4956128 0.4904708 16711680
-0.11736511 -0.49628201 0.49092099 16711680
-0.12272118 -0.49600968 0.49070755 16711680
-0.12735389 -0.49575633 0.49071696 16711680
-0.13239476 -0.49581492 0.49105021 16711680
-0.13763699 -0.4958705 0.49079654 16711680
-0.14269444 -0.49544662 0.4905847 16711680
-0.14745621 -0.49571186 0.49091986 16711680
-0.15101896 -0.49644151 0.49119452 16711680
-0.15924634 -0.49574161 0.49138871 16711680
-0.16240966 -0.49630153 0.49123338 16711680
-0.16525912 -0.49574161 0.49138871 16711680
0.35132465 -0.50010633 0.49112085 16711680
0.34750906 -0.50051135 0.4905273 16711680
0.34261855 -0.50049251 0.48990747 16711680
0.33729738 -0.49947357 0.48884287 16711680
0.3321079 -0.49944013 0.48882505 16711680
0.32751882 -0.49988657 0.48917571 16711680
0.32276344 -0.49970394 0.48921701 16711680
0.31712663 -0.4995572 0.48888728 16711680
0.31238416 -0.49934912 0.4894239 16711680
0.30742007 -0.49944833 0.48939571 16711680
0.30272025 -0.49996406 0.4893553 16711680
0.29723999 -0.49955717 0.48888728 16711680
0.29215926 -0.49960765 0.48966917 16711680
0.28740108 -0.49997976 0.48996142 16711680
0.28241807 -0.49992537 0.49021569 16711680
0.27755037 -0.50005186 0.49017993 16711680
0.27229604 -0.50040865 0.49039707 16711680
0.26754206 -0.50011075 0.48990241 16711680
0.26269442 -0.50018954 0.48953244 16711680
0.25758004 -0.49984309 0.48937908 16711680
0.25223646 -0.5001893 0.48992035 16711680
0.24739927 -0.50040567 0.4901475 16711680
0.2430224 -0.50028974 0.48972985 16711680
0.23770678 -0.49947557 0.48926857 16711680
0.23227313 -0.49973467 0.48988774 16711680
0.22753015 -0.50037456 0.49029276 16711680
0.22291073 -0.50075555 0.49025258 16711680
0.21807832 -0.49982131 0.4894807 16711680
0.21288106 -0.49932584 0.48895302 16711680
0.20668948 -0.49920601 0.4887006 16711680
0.201859 -0.49963161 0.48955604 16711680
0.19716592 -0.50035745 0.49087009 16711680
0.19245972 -0.49999315 0.49153522 16711680
0.18757649 -0.50039065 0.49110004 16711680
0.18281314 -0.49991482 0.48950222 16711680
0.17924589 -0.49897191 0.48857608 16711680
0.17129125 -0.49897191 0.48857608 16711680
0.16731392 -0.49897191 0.48857608 16711680
0.16201082 -0.49897191 0.48857608 16711680
0.15703917 -0.49926457 0.48873171 16711680
0.15273038 -0.4995572 0.48888728 16711680
0.14742726 -0.49897191 0.48857608 16711680
0.14212418 -0.49897191 0.48857608 16711680
0.13748395 -0.49897191 0.48857608 16711680
0.13284373 -0.49897191 0.48857608 16711680
0.12754063 -0.49897191 0.48857608 16711680
0.12223753 -0.49897191 0.48857608 16711680
0.1175973 -0.49897191 0.48857608 16711680
0.11163132 -0.49897191 0.48857608 16711680
0.1069911 -0.49897194 0.48857608 16711680
0.10214561 -0.49970394 0.48921701 16711680
0.097070128 -0.50039935 0.48973963 16711680
0.092593431 -0.49991453 0.48950204 16711680
0.088051438 -0.4994736 0.48884287 16711680
0.082066506 -0.49920607 0.4887006 16711680
0.077066436 -0.49947363 0.48884287 16711680
0.072393984 -0.50028974 0.48972979 16711680
0.067883529 -0.50061953 0.49001846 16711680
0.062765516 -0.50038379 0.48981228 16711680
0.057110332 -0.5001722 0.48999843 16711680
0.052495353 -0.49992129 0.49110338 16711680
0.047915634 -0.49963212 0.49158856 16711680
0.042628966 -0.50041711 0.49097261 16711680
0.037314784 -0.5004952 0.48999014 16711680
0.032187466 -0.50074387 0.49004689 16711680
0.027569387 -0.5003593 0.49053356 16711680
0.02272239 -0.50051135 0.49052724 16711680
0.017384134 -0.50045753 0.49078181 16711680
0.01235038 -0.50061709 0.49090704 16711680
0.0079627186 -0.49995092 0.49060676 16711680
0.0030985251 -0.49975622 0.48978594 16711680
-0.0024514943 -0.49944836 0.48939571 16711680
-0.0077597946 -0.49944839 0.48939571 16711680
-0.01277253 -0.49954751 0.48936751 16711680
-0.017344899 -0.49934921 0.48942384 16711680
-0.02256909 -0.49965557 0.48944291 16711680
-0.02790802 -0.50030673 0.49017575 16711680
-0.032799773 -0.50030339 0.4910638 16711680
-0.03746482 -0.49947137 0.49170282 16711680
-0.042383783 -0.50001669 0.49114504 16711680
-0.047637179 -0.50054252 0.49099681 16711680
-0.052614875 -0.50044966 0.49102291 16711680
-0.057507202 -0.49962568 0.49125549 16711680
-0.06241186 -0.49985373 0.49119088 16711680
-0.067452595 -0.50028986 0.49118808 16711680
-0.072635412 -0.49968866 0.49168864 16711680
-0.077479184 -0.49943748 0.4918637 16711680
-0.082554355 -0.49971914 0.49183461 16711680
-0.087526962 -0.49999547 0.49181011 16711680
-0.092546895 -0.50025702 0.49173686 16711680
-0.097338781 -0.5003798 0.49053273 16711680
-0.10202162 -0.49942145 0.48952296 16711680
-0.1074183 -0.49970394 0.48921695 16711680
-0.11259261 -0.50057328 0.490473 16711680
-0.11741051 -0.50037163 0.49098143 16711680
-0.12235068 -0.50030839 0.49087235 16711680
-0.12732707 -0.50058609 0.49079344 16711680
-0.1321943 -0.5000726 0.49046817 16711680
-0.13759194 -0.500319 0.49025068 16711680
-0.14233992 -0.50031376 0.49058393 16711680
-0.14744154 -0.50046599 0.49163565 16711680
-0.15258022 -0.49977782 0.49200258 16711680
-0.15766031 -0.49966189 0.49174753 16711680
-0.16267 -0.50012922 0.49117342 16711680
-0.16734844 -0.49972326 0.49204966 16711680
-0.17211555 -0.50026733 0.49356863 16711680
-0.17795278 -0.50046068 0.49389789 16711680
-0.1819613 -0.50046068 0.49389789 16711680
0.35093391 -0.50365424 0.49106577 16711680
0.34761947 -0.50365424 0.49106577 16711680
0.19648099 -0.50365424 0.49106577 16711680
0.19250365 -0.5036543 0.49106577 16711680
0.18786345 -0.5036543 0.49106577 16711680
0.051308502 -0.5036543 0.49106577 16711680
0.047994062 -0.5036543 0.49106577 16711680
0.043353844 -0.5036543 0.49106577 16711680
0.02744453 -0.5036543 0.49106577 16711680
0.02479298 -0.5036543 0.49106577 16711680
-0.034204058 -0.5036543 0.49106577 16711680
-0.037518501 -0.5036543 0.49106577 16711680
-0.042158715 -0.5036543 0.49106577 16711680
-0.045473158 -0.5036543 0.49106577 16711680
-0.052102037 -0.5036543 0.49106577 16711680
-0.062045366 -0.5036543 0.49106577 16711680
-0.067348465 -0.5036543 0.49106577 16711680
-0.072651565 -0.5036543 0.49106577 16711680
-0.07795468 -0.5036543 0.49106577 16711680
-0.082594901 -0.5036543 0.49106577 16711680
-0.087519214 -0.50415599 0.4913325 16711680
-0.092498466 -0.50441152 0.49159417 16711680
-0.096515551 -0.5036543 0.49106577 16711680
-0.11839086 -0.5036543 0.49106577 16711680
-0.12236817 -0.5036543 0.49106577 16711680
-0.12568264 -0.5036543 0.49106577 16711680
-0.14331543 -0.50388843 0.49119022 16711680
-0.14769728 -0.50417006 0.49171749 16711680
-0.15235737 -0.50416142 0.49176005 16711680
-0.15721717 -0.50415599 0.4913325 16711680
-0.16308844 -0.50415599 0.4913325 16711680
-0.16744459 -0.50482488 0.49168816 16711680
-0.1728093 -0.50438708 0.49284938 16711680
-0.17753191 -0.50443727 0.49291274 16711680
-0.18107875 -0.50399393 0.49302605 16711680
0.31550464 -0.48033512 0.48885986 16711680
0.3121317 -0.48033512 0.48885986 16711680
0.30808419 -0.48033512 0.48885986 16711680
0.16642112 -0.48033512 0.48885986 16711680
0.16237359 -0.48033512 0.48885986 16711680
0.15832607 -0.48033512 0.48885986 16711680
0.35597983 -0.48510009 0.49139348 16711680
0.35216019 -0.48465833 0.49083492 16711680
0.34726572 -0.48452252 0.49060091 16711680
0.34256729 -0.48472703 0.49054798 16711680
0.3376998 -0.48453453 0.49095121 16711680
0.33227295 -0.48458955 0.49112198 16711680
0.3274785 -0.48398903 0.4904252 16711680
0.32263488 -0.48375219 0.49001607 16711680
0.31743896 -0.48352492 0.48956493 16711680
0.31246233 -0.48373049 0.48935845 16711680
0.30758628 -0.48357108 0.48937711 16711680
0.30286625 -0.48404074 0.49021241 16711680
0.29738754 -0.48452252 0.49060097 16711680
0.29270285 -0.48472708 0.49054793 16711680
0.28763193 -0.4846248 0.49057451 16711680
0.28224045 -0.4846248 0.49057445 16711680
0.27724081 -0.48419523 0.49068585 16711680
0.27196303 -0.48417839 0.49033704 16711680
0.2673738 -0.48350981 0.48941532 16711680
0.262665 -0.48419076 0.48958865 16711680
0.25757483 -0.48428053 0.4897221 16711680
0.2523149 -0.48480618 0.4898214 16711680
0.24719574 -0.4846248 0.49057451 16711680
0.24264935 -0.48450449 0.4910768 16711680
0.23759173 -0.48438615 0.49063632 16711680
0.23247975 -0.48397619 0.4899722 16711680
0.22729363 -0.48376751 0.48920378 16711680
0.22254528 -0.48375559 0.48916855 16711680
0.2174136 -0.48354053 0.48950252 16711680
0.21256258 -0.48334396 0.48967561 16711680
0.20783478 -0.48367482 0.48950306 16711680
0.20279457 -0.48379296 0.48964676 16711680
0.19744892 -0.48452032 0.49007848 16711680
0.192239 -0.48452252 0.49060097 16711680
0.18761699 -0.48469269 0.49069139 16711680
0.18280262 -0.48469275 0.49069139 16711680
0.1772145 -0.48510012 0.49139348 16711680
0.17229964 -0.48424923 0.49094102 16711680
0.16749129 -0.48361036 0.4897708 16711680
0.16239356 -0.48349106 0.48892 16711680
0.15778026 -0.48382998 0.48910019 16711680
0.15271762 -0.48361635 0.48918882 16711680
0.14734362 -0.48360103 0.48925146 16711680
0.14249381 -0.48430967 0.48971471 16711680
0.13776974 -0.48486346 0.49051258 16711680
0.13234423 -0.48429197 0.49028423 16711680
0.1272351 -0.48402956 0.49025801 16711680
0.12268586 -0.48417836 0.4903371 16711680
0.11760399 -0.48435944 0.49074796 16711680
0.11242374 -0.48398906 0.4904252 16711680
0.10712236 -0.48355329 0.48991033 16711680
0.10268401 -0.48360425 0.49003181 16711680
0.097645879 -0.48379964 0.49035349 16711680
0.092190415 -0.48462483 0.49057445 16711680
0.087277398 -0.48438707 0.49036714 16711680
0.082603879 -0.48367435 0.48950282 16711680
0.07734859 -0.48358595 0.48931423 16711680
0.072943047 -0.48393744 0.49002019 16711680
0.06837967 -0.48474315 0.49101487 16711680
0.062534846 -0.48510012 0.49139348 16711680
0.056691609 -0.48474312 0.49101487 16711680
0.052428182 -0.4846248 0.49057451 16711680
0.04750701 -0.48457411 0.48985532 16711680
0.042161323 -0.48388001 0.4892886 16711680
0.03727255 -0.48451075 0.48860261 16711680
0.032763485 -0.48423421 0.48847905 16711680
0.027715076 -0.48379326 0.48964694 16711680
0.022536118 -0.48478323 0.4908475 16711680
0.017086633 -0.48467174 0.49093917 16711680
0.012678724 -0.4846549 0.49044886 16711680
0.0070162788 -0.48429197 0.49028423 16711680
0.0027156435 -0.48383975 0.48993048 16711680
-0.0016877353 -0.48441574 0.49074647 16711680
-0.0069475174 -0.48510012 0.49139348 16711680
-0.017201222 -0.48486185 0.49126676 16711680
-0.022441439 -0.48453456 0.49095121 16711680
-0.027770221 -0.4846248 0.49057451 16711680
-0.032656096 -0.48417839 0.4903371 16711680
-0.037089363 -0.48417091 0.48967245 16711680
-0.042241581 -0.48388004 0.4892886 16711680
-0.047351055 -0.48398936 0.49042532 16711680
-0.052144788 -0.48450452 0.49107674 16711680
-0.057597086 -0.48351288 0.490172 16711680
-0.062672302 -0.48356146 0.48997131 16711680
-0.067428038 -0.48411793 0.4905881 16711680
-0.070358619 -0.48510015 0.49139348 16711680
-0.088572443 -0.48510015 0.49139348 16711680
-0.093294531 -0.48510015 0.49139348 16711680
-0.097682104 -0.48462397 0.49097845 16711680
-0.10253544 -0.4846549 0.49044886 16711680
-0.10726146 -0.48405349 0.4901574 16711680
-0.11260149 -0.48528063 0.49063995 16711680
-0.11690505 -0.48510015 0.49139348 16711680
-0.13781722 -0.48510015 0.49139348 16711680
-0.14213459 -0.48486191 0.49126676 16711680
-0.14793602 -0.48510015 0.49139348 16711680
-0.15265812 -0.48510015 0.49139348 16711680
-0.15670565 -0.48510015 0.49139348 16711680
0.35541913 -0.48712417 0.49133709 16711680
0.35253489 -0.48850799 0.49131784 16711680
0.34741127 -0.48859185 0.49054918 16711680
0.34235877 -0.48872221 0.49020484 16711680
0.33738852 -0.48866367 0.49064556 16711680
0.33268237 -0.48854655 0.49096087 16711680
0.32757863 -0.48873043 0.49016866 16711680
0.32254687 -0.48831844 0.48960403 16711680
0.31763712 -0.48806027 0.48967245 16711680
0.31244224 -0.48889995 0.49007902 16711680
0.30715677 -0.48849124 0.4906294 16711680
0.30257902 -0.48871949 0.49087855 16711680
0.29760432 -0.48856932 0.49029341 16711680
0.29262057 -0.48863235 0.49040249 16711680
0.28779697 -0.48885053 0.49047515 16711680
0.28290325 -0.48857608 0.49083498 16711680
0.27747691 -0.48860562 0.4907091 16711680
0.2723119 -0.48844388 0.49083075 16711680
0.26743585 -0.48884609 0.49033603 16711680
0.26236993 -0.4887732 0.48942015 16711680
0.25709462 -0.48816794 0.48921505 16711680
0.25217319 -0.48866257 0.48988983 16711680
0.24731711 -0.48856106 0.49089774 16711680
0.24242228 -0.48866618 0.49126711 16711680
0.2373956 -0.48842847 0.49089804 16711680
0.23261394 -0.48879218 0.49056867 16711680
0.22753884 -0.48878184 0.48995325 16711680
0.22230634 -0.4886632 0.48989019 16711680
0.21723293 -0.48870748 0.49026772 16711680
0.21255985 -0.48871949 0.49087855 16711680
0.20757291 -0.48864973 0.49052015 16711680
0.20218474 -0.48866433 0.49045715 16711680
0.19734707 -0.48846415 0.49065569 16711680
0.19267672 -0.48875964 0.49062106 16711680
0.18738604 -0.48869336 0.4903309 16711680
0.18229887 -0.48852766 0.49022266 16711680
0.17775905 -0.48879927 0.49069068 16711680
0.17275015 -0.48854637 0.49096069 16711680
0.16734982 -0.48857614 0.49083492 16711680
0.16262312 -0.48860589 0.49070928 16711680
0.15789932 -0.48863515 0.49058321 16711680
0.1524635 -0.48872223 0.49020478 16711680
0.14736682 -0.48853534 0.48947373 16711680
0.14259833 -0.4883551 0.48949984 16711680
0.13754083 -0.48864692 0.48995712 16711680
0.13237333 -0.48864961 0.49052009 16711680
0.12716518 -0.48847571 0.49069664 16711680
0.12253171 -0.48873782 0.49080124 16711680
0.11759681 -0.48866308 0.49045643 16711680
0.11220278 -0.48872226 0.49020472 16711680
0.10750569 -0.48872229 0.49020472 16711680
0.10281745 -0.48869333 0.49033096 16711680
0.097440518 -0.48872223 0.49020478 16711680
0.092217669 -0.48855254 0.49035999 16711680
0.087580279 -0.48886362 0.49025807 16711680
0.082674466 -0.48875204 0.49007902 16711680
0.077302963 -0.48879591 0.48988995 16711680
0.072610199 -0.48876143 0.49003682 16711680
0.067917041 -0.48864824 0.49051926 16711680
0.062543705 -0.48850209 0.49114951 16711680
0.057169646 -0.48856124 0.49089786 16711680
0.05247061 -0.48860595 0.49070922 16711680
0.047786467 -0.48872298 0.49020508 16711680
0.042639054 -0.48862925 0.48938677 16711680
0.038108662 -0.48807174 0.48872635 16711680
0.02739517 -0.48864639 0.48971948 16711680
0.022229593 -0.48856136 0.49089792 16711680
0.017498508 -0.48848811 0.49121287 16711680
0.012842584 -0.48860595 0.49070922 16711680
0.0074481703 -0.48856252 0.49089858 16711680
0.0021999627 -0.48866674 0.49102476 16711680
-0.0024917573 -0.48830149 0.49135324 16711680
-0.0074300319 -0.48839965 0.49159059 16711680
-0.012713246 -0.48846167 0.49189726 16711680
-0.017477684 -0.4884626 0.4913207 16711680
-0.022271313 -0.48841214 0.49096486 16711680
-0.027412385 -0.48866439 0.49045721 16711680
-0.032783076 -0.48866442 0.49045715 16711680
-0.037482426 -0.48866436 0.49045715 16711680
-0.042169377 -0.48867932 0.49039426 16711680
-0.047689334 -0.48851755 0.49108699 16711680
-0.052516907 -0.48838973 0.49163255 16711680
-0.057142466 -0.48847383 0.49127612 16711680
-0.06246078 -0.48853314 0.49102452 16711680
-0.067551464 -0.48869956 0.49112311 16711680
-0.072444201 -0.4881078 0.49202189 16711680
-0.077503949 -0.48890612 0.49228457 16711680
-0.082825825 -0.48876828 0.49240002 16711680
-0.087540329 -0.4881779 0.49235043 16711680
-0.092490539 -0.48816109 0.49203947 16711680
-0.097426891 -0.48851699 0.49108669 16711680
-0.10245955 -0.48876637 0.49001589 16711680
-0.10744625 -0.48900068 0.48982695 16711680
-0.11238678 -0.48842788 0.49065492 16711680
-0.11767265 -0.48849317 0.49176297 16711680
-0.12279229 -0.48835063 0.49198928 16711680
-0.12762095 -0.48839608 0.49140927 16711680
-0.13260381 -0.48837847 0.49168047 16711680
-0.13756573 -0.48842874 0.49146441 16711680
-0.1424108 -0.4885461 0.49096057 16711680
-0.14722188 -0.48844332 0.49083039 16711680
-0.15249181 -0.48854649 0.49096081 16711680
-0.157634 -0.48855737 0.4915764 16711680
-0.16235338 -0.48841262 0.49219641 16711680
-0.16733167 -0.4892945 0.49277422 16711680
-0.17208622 -0.48938864 0.49367371 16711680
0.35235333 -0.49294525 0.49148753 16711680
0.3477127 -0.49256408 0.49083182 16711680
0.34436578 -0.49197307 0.49051759 16711680
0.33298621 -0.49197307 0.49051759 16711680
0.3289699 -0.49197307 0.49051759 16711680
0.31134269 -0.49236709 0.4907271 16711680
0.30772561 -0.49247813 0.49121091 16711680
0.30287313 -0.49207193 0.49124977 16711680
0.29817808 -0.49197307 0.49051759 16711680
0.2921536 -0.49197307 0.49051759 16711680
0.28746784 -0.49197307 0.49051759 16711680
0.28232354 -0.49244949 0.49133721 16711680
0.27685949 -0.49191579 0.49077025 16711680
0.27256972 -0.49258304 0.49116555 16711680
0.26767313 -0.49247968 0.49078694 16711680
0.26336992 -0.49197307 0.49051759 16711680
0.2506516 -0.49197307 0.49051759 16711680
0.24691674 -0.49232888 0.4908956 16711680
0.24302517 -0.49235421 0.49117324 16711680
0.23793323 -0.49197307 0.49051759 16711680
0.2321765 -0.49220949 0.49064329 16711680
0.22762467 -0.49220949 0.49064329 16711680
0.2238761 -0.49197307 0.49051759 16711680
0.21584347 -0.49197307 0.49051759 16711680
0.21249653 -0.49197307 0.49051759 16711680
0.2067398 -0.49220949 0.49064329 16711680
0.20245573 -0.49256411 0.49083182 16711680
0.19777001 -0.49256411 0.49083182 16711680
0.19247742 -0.49250677 0.49108455 16711680
0.18746147 -0.49220949 0.49064329 16711680
0.17568025 -0.49197307 0.49051759 16711680
0.17032516 -0.49197307 0.49051759 16711680
0.16764762 -0.49197307 0.49051759 16711680
0.1629619 -0.49197307 0.49051759 16711680
0.15760681 -0.49197307 0.49051759 16711680
0.15359047 -0.49197307 0.49051759 16711680
0.13150072 -0.49197307 0.49051759 16711680
0.12748438 -0.49197307 0.49051759 16711680
0.12279868 -0.49197307 0.49051759 16711680
0.11945175 -0.49197307 0.49051759 16711680
0.10271707 -0.4919731 0.49051759 16711680
0.097361967 -0.4919731 0.49051759 16711680
0.09334565 -0.4919731 0.49051759 16711680
0.08665178 -0.4919731 0.49051759 16711680
0.082635455 -0.4919731 0.49051759 16711680
0.07928852 -0.4919731 0.49051759 16711680
0.062152218 -0.49220949 0.49064329 16711680
0.05697168 -0.4927102 0.4911612 16711680
0.052380081 -0.49348128 0.49183425 16711680
0.048011906 -0.49344397 0.49154231 16711680
0.044034142 -0.49236712 0.4907271 16711680
0.026406951 -0.4919731 0.49051759 16711680
0.021915928 -0.49229074 0.49106398 16711680
0.017012902 -0.4925068 0.49108455 16711680
0.012143593 -0.49278468 0.49111089 16711680
0.0074493922 -0.49321416 0.49178728 16711680
0.0021977574 -0.49294582 0.49207303 16711680
-0.0023404881 -0.49277908 0.49207869 16711680
-0.0071743354 -0.49273586 0.49182913 16711680
-0.012642331 -0.49279851 0.49219206 16711680
-0.017852947 -0.49244952 0.49133721 16711680
-0.022760533 -0.49240005 0.49097118 16711680
-0.027430885 -0.49247968 0.49078694 16711680
-0.032977536 -0.49309286 0.49142179 16711680
-0.037903637 -0.49368936 0.4917132 16711680
-0.042427167 -0.49336866 0.49137285 16711680
-0.04731673 -0.49305987 0.49156728 16711680
-0.053000279 -0.49326536 0.4923372 16711680
-0.057787918 -0.49368641 0.49195132 16711680
-0.062258303 -0.49328762 0.49191347 16711680
-0.067392856 -0.49307877 0.49148294 16711680
-0.072751433 -0.49307877 0.49148294 16711680
-0.077648267 -0.49325448 0.49187854 16711680
-0.0821428 -0.49312615 0.49217615 16711680
-0.087507486 -0.49312621 0.49217609 16711680
-0.092426062 -0.49287152 0.49175033 16711680
-0.09668842 -0.49216372 0.49084541 16711680
-0.10010719 -0.4919731 0.49051759 16711680
-0.10947862 -0.4919731 0.49051759 16711680
-0.1128833 -0.49252594 0.49100026 16711680
-0.11767751 -0.49268928 0.49190512 16711680
-0.12229577 -0.49255791 0.49183527 16711680
-0.127739 -0.49244952 0.49133721 16711680
-0.13283913 -0.49251795 0.49145445 16711680
-0.13743439 -0.49234873 0.49136451 16711680
-0.14187694 -0.49220952 0.49064329 16711680
-0.14763367 -0.49256411 0.49083182 16711680
-0.15287654 -0.49348125 0.49183425 16711680
-0.15743577 -0.49326506 0.49233702 16711680
-0.16257823 -0.49305511 0.4921225 16711680
-0.16753486 -0.49314743 0.49265203 16711680
-0.17232737 -0.49336079 0.4938691 16711680
-0.17728963 -0.49269462 0.49517986 16711680
-0.18297194 -0.49316838 0.49485978 16711680
-0.18503824 -0.49105638 0.49456045 16711680
-0.16905405 -0.49670136 0.49303165 16711680
-0.17297234 -0.49754375 0.49447057 16711680
-0.1774168 -0.49705613 0.49513695 16711680
-0.18178511 -0.49709049 0.49498102 16711680
0.33664781 -0.47397435 0.49114063 16711680
0.33209327 -0.47343773 0.49057218 16711680
0.32747489 -0.47332227 0.49022767 16711680
0.32246861 -0.4731757 0.48978934 16711680
0.31743437 -0.47333199 0.48966643 16711680
0.31244799 -0.47346509 0.48963431 16711680
0.3075473 -0.47315866 0.49032941 16711680
0.30217713 -0.47311544 0.49049523 16711680
0.29839355 -0.47387415 0.49108735 16711680
0.28250155 -0.47427505 0.49130049 16711680
0.27773398 -0.47427505 0.49130049 16711680
0.27432853 -0.47427505 0.49130049 16711680
0.24708512 -0.47427505 0.49130049 16711680
0.24163646 -0.47427505 0.49130049 16711680
0.23754995 -0.47427505 0.49130049 16711680
0.23278235 -0.47427505 0.49130049 16711680
0.22733366 -0.47427505 0.49130049 16711680
0.22246626 -0.47376001 0.49064919 16711680
0.21770127 -0.47315869 0.49032936 16711680
0.21250975 -0.47341651 0.49039093 16711680
0.20749107 -0.47376001 0.49064907 16711680
0.20322326 -0.47403449 0.49117264 16711680
0.1987281 -0.47427505 0.49130049 16711680
0.18101987 -0.47427505 0.49130049 16711680
0.17734203 -0.47379395 0.49104473 16711680
0.17279607 -0.4737384 0.49073204 16711680
0.16745968 -0.47334671 0.49008611 16711680
0.1629239 -0.47403908 0.49089196 16711680
0.15854408 -0.47427505 0.49130049 16711680
0.14764673 -0.47427505 0.49130049 16711680
0.14287913 -0.47427505 0.49130049 16711680
0.13690071 -0.47333956 0.49080321 16711680
0.13285744 -0.47341594 0.4908438 16711680
0.12789527 -0.47367364 0.49098083 16711680
0.12290064 -0.47387412 0.49108741 16711680
0.11767898 -0.47427505 0.49130049 16711680
0.11320329 -0.47375956 0.49102649 16711680
0.1074627 -0.47427505 0.49130049 16711680
0.10269511 -0.47427505 0.49130049 16711680
0.097473457 -0.47387412 0.49108741 16711680
0.093500465 -0.47397438 0.49114063 16711680
0.077082328 -0.47408628 0.49097368 16711680
0.072040759 -0.4737708 0.49060771 16711680
0.067619234 -0.47397438 0.49114063 16711680
0.037310954 -0.47427505 0.49130049 16711680
0.032089304 -0.47387412 0.49108741 16711680
0.027094681 -0.47367367 0.49098083 16711680
0.022667628 -0.47397438 0.49114063 16711680
-0.023986705 -0.47427505 0.49130049 16711680
-0.029435381 -0.47427505 0.49130049 16711680
-0.032840803 -0.47427505 0.49130049 16711680
-0.0376084 -0.47427505 0.49130049 16711680
-0.042375997 -0.47427505 0.49130049 16711680
-0.048023723 -0.47387064 0.49060008 16711680
-0.05259227 -0.4736737 0.49098083 16711680
-0.057301484 -0.47373843 0.49073204 16711680
-0.062746927 -0.47373843 0.49073204 16711680
-0.067463413 -0.47318774 0.49021897 16711680
-0.07203716 -0.47284007 0.49005207 16711680
-0.077338368 -0.47387415 0.49108741 16711680
-0.082560003 -0.47427505 0.49130049 16711680
-0.087728903 -0.47362047 0.49052772 16711680
-0.092190832 -0.47358811 0.49065211 16711680
-0.09754388 -0.47427505 0.49130049 16711680
0.35710225 -0.4779523 0.49226478 16711680
0.35267892 -0.4779487 0.49212125 16711680
0.34734491 -0.47813368 0.4922196 16711680
0.3422029 -0.47805455 0.49208322 16711680
0.33733904 -0.47753063 0.49128899 16711680
0.33221743 -0.4780077 0.49056694 16711680
0.32725108 -0.47782367 0.49013802 16711680
0.32229772 -0.47822729 0.48970214 16711680
0.31742844 -0.47788984 0.48916408 16711680
0.31255305 -0.47773671 0.48891965 16711680
0.30733982 -0.47785634 0.48948333 16711680
0.30236888 -0.47775495 0.49055251 16711680
0.29749525 -0.47770345 0.49176434 16711680
0.29273164 -0.47777045 0.4923096 16711680
0.28758496 -0.47749647 0.49204263 16711680
0.28249902 -0.47769642 0.49125901 16711680
0.27739096 -0.477763 0.49081436 16711680
0.27251142 -0.47772384 0.49132207 16711680
0.26747802 -0.47800589 0.49118081 16711680
0.26245409 -0.47809291 0.49188897 16711680
0.25761324 -0.47813368 0.4922196 16711680
0.25246096 -0.47787544 0.49199513 16711680
0.24741332 -0.47751379 0.49143699 16711680
0.2426323 -0.47784591 0.49128249 16711680
0.23752853 -0.47781765 0.49077734 16711680
0.23231757 -0.477705 0.49045458 16711680
0.22755712 -0.47813761 0.49028 16711680
0.22232267 -0.4780553 0.48984197 16711680
0.21736977 -0.47792119 0.48975423 16711680
0.21263024 -0.4782438 0.48963544 16711680
0.20737472 -0.47810298 0.48965499 16711680
0.20248461 -0.47770506 0.49045452 16711680
0.19749659 -0.47770149 0.4913902 16711680
0.19260105 -0.47763252 0.49212739 16711680
0.18765494 -0.4774698 0.49214968 16711680
0.18249747 -0.4773075 0.49202296 16711680
0.17761838 -0.47790295 0.49120703 16711680
0.17260858 -0.4777602 0.4902412 16711680
0.16795443 -0.47806752 0.48935297 16711680
0.16273242 -0.47746325 0.48950359 16711680
0.1571759 -0.47772837 0.4899815 16711680
0.15234707 -0.47764999 0.49066809 16711680
0.14761648 -0.4781194 0.49035129 16711680
0.14263713 -0.47769058 0.49127606 16711680
0.13735463 -0.47754833 0.49130437 16711680
0.1325637 -0.47802153 0.49059173 16711680
0.12759519 -0.47791225 0.49040285 16711680
0.12219893 -0.47784889 0.49065241 16711680
0.1175037 -0.47772193 0.49115118 16711680
0.1126828 -0.47791225 0.49040285 16711680
0.10726012 -0.47791225 0.49040285 16711680
0.10247865 -0.47803938 0.48990431 16711680
0.097770423 -0.47791222 0.49040291 16711680
0.092386097 -0.47772223 0.49115136 16711680
0.087642834 -0.47767976 0.49131754 16711680
0.08287359 -0.47780046 0.49083903 16711680
0.077424079 -0.47803915 0.48990414 16711680
0.072684944 -0.47799724 0.49007055 16711680
0.067948863 -0.47770765 0.49121436 16711680
0.062514715 -0.47748569 0.49208745 16711680
0.057210755 -0.47760263 0.49216375 16711680
0.052310988 -0.47804976 0.49255255 16711680
0.04740084 -0.47792953 0.49219814 16711680
0.042147953 -0.47767425 0.49133822 16711680
0.037438869 -0.47789079 0.49048594 16711680
0.032725882 -0.47802323 0.48996648 16711680
0.027270764 -0.47789663 0.49046537 16711680
0.022462599 -0.47770175 0.49123475 16711680
0.017632805 -0.47748572 0.49208739 16711680
0.0124158 -0.47806457 0.49166009 16711680
