# .PCD v0.7 - Point Cloud Data file format
VERSION 0.7
FIELDS x y z rgba
SIZE 4 4 4 4
TYPE F F F U
COUNT 1 1 1 1
WIDTH 1175
HEIGHT 1
VIEWPOINT 0 0 0 1 0 0 0
POINTS 1175
DATA ascii
-0.26255664 -0.21043299 0.50762659 65280
-0.25745675 -0.21086714 0.50777328 65280
-0.2521365 -0.21025978 0.50710881 65280
-0.24747093 -0.21025944 0.50668073 65280
-0.242503 -0.21027532 0.50635141 65280
-0.23758492 -0.20999336 0.50646645 65280
-0.23253594 -0.21027492 0.50671971 65280
-0.22727081 -0.21057165 0.50690567 65280
-0.22247726 -0.21029761 0.5069145 65280
-0.21781342 -0.21014223 0.50682288 65280
-0.21253689 -0.21019852 0.50616568 65280
-0.20744003 -0.21009855 0.50629437 65280
-0.20246802 -0.21010655 0.50631374 65280
-0.19741954 -0.21003455 0.50613964 65280
-0.19256383 -0.21042451 0.50580162 65280
-0.1874049 -0.21059781 0.50565141 65280
-0.18313877 -0.21059778 0.50565135 65280
-0.16739388 -0.21046831 0.50534272 65280
-0.16218291 -0.21046831 0.50534272 65280
-0.15886682 -0.21046831 0.50534272 65280
-0.15147462 -0.21087913 0.50540739 65280
-0.14754295 -0.2103239 0.5056082 65280
-0.14261048 -0.21059781 0.50565141 65280
-0.13749079 -0.21094272 0.50610971 65280
-0.13257994 -0.21067123 0.50616145 65280
-0.12767899 -0.21059781 0.50565141 65280
-0.12243259 -0.21087466 0.50557971 65280
-0.11745431 -0.21074918 0.50564641 65280
-0.11282603 -0.21073723 0.50557727 65280
-0.10741061 -0.21140733 0.5054906 65280
-0.10250604 -0.21117258 0.50545359 65280
-0.098466828 -0.21046831 0.50534272 65280
-0.071943268 -0.21112563 0.50544626 65280
-0.066966027 -0.21087466 0.50557971 65280
-0.062739037 -0.21080694 0.50554019 65280
-0.055882752 -0.21128996 0.50547212 65280
-0.052326556 -0.21128996 0.50547212 65280
-0.04734787 -0.21128996 0.50547212 65280
-0.042646177 -0.21112563 0.50544626 65280
-0.038777411 -0.21046831 0.50534272 65280
-0.0077584502 -0.21156386 0.50551522 65280
0.01238494 -0.21046831 0.50534272 65280
-0.31007943 -0.20708309 0.50827521 65280
-0.3074415 -0.20550691 0.50849551 65280
-0.30239186 -0.20590702 0.50879759 65280
-0.29733181 -0.2055504 0.50863719 65280
-0.29217675 -0.2055653 0.50861037 65280
-0.28780356 -0.20524126 0.50906581 65280
-0.2825878 -0.20583953 0.50859666 65280
-0.27791253 -0.2058617 0.50795388 65280
-0.27256095 -0.20670384 0.50734431 65280
-0.26971859 -0.20670384 0.50734431 65280
-0.2626127 -0.20670384 0.50734431 65280
-0.2576386 -0.20670384 0.50734431 65280
-0.25266448 -0.20670384 0.50734431 65280
-0.24769036 -0.20670384 0.50734431 65280
-0.24271624 -0.20670384 0.50734431 65280
-0.23774213 -0.20670384 0.50734431 65280
-0.232768 -0.20670384 0.50734431 65280
-0.22779387 -0.20670384 0.50734431 65280
-0.22353035 -0.20670384 0.50734431 65280
-0.20576565 -0.20670384 0.50734431 65280
-0.2029233 -0.20670384 0.50734431 65280
-0.082104139 -0.31320125 0.45959038 65280
-0.077666454 -0.31410301 0.45849073 65280
-0.07245896 -0.31518191 0.45825419 65280
-0.067602649 -0.31472951 0.45831943 65280
-0.062899902 -0.31456921 0.45905188 65280
-0.058814134 -0.31414402 0.45927793 65280
-0.052181732 -0.31202209 0.4587073 65280
-0.047192339 -0.312305 0.45912319 65280
-0.042069398 -0.31326783 0.45951724 65280
-0.037546061 -0.31301263 0.45907047 65280
-0.032579888 -0.31349415 0.45984995 65280
-0.027486946 -0.31325546 0.45942682 65280
-0.023399271 -0.31173921 0.45829141 65280
-0.015496749 -0.31173921 0.45829141 65280
-0.012652782 -0.31249359 0.45940042 65280
-0.0083578974 -0.31343651 0.46078667 65280
-0.086368755 -0.31024766 0.46248221 65280
-0.082772531 -0.30944175 0.45973954 65280
-0.076422751 -0.31117344 0.45745969 65280
-0.06638325 -0.31117344 0.45745969 65280
-0.062797703 -0.31117344 0.45745969 65280
-0.057538927 -0.31117344 0.45745969 65280
-0.035547633 -0.30990711 0.45813301 65280
-0.032717943 -0.31028274 0.45868826 65280
-0.02765945 -0.30990711 0.45813301 65280
-0.022639699 -0.31054029 0.45779634 65280
-0.017619949 -0.31085688 0.45762801 65280
-0.012606963 -0.31009489 0.45841062 65280
-0.0075966939 -0.30997795 0.45951098 65280
-0.0023889104 -0.30978397 0.46018046 65280
0.0024672572 -0.30967271 0.46033412 65280
0.0072988048 -0.31004798 0.46016139 65280
0.012541662 -0.31032926 0.46003208 65280
0.01758202 -0.31039974 0.46013623 65280
0.022646451 -0.31075135 0.46065715 65280
0.027683085 -0.31068146 0.46055266 65280
0.032725651 -0.31068149 0.46055272 65280
0.037508879 -0.30924195 0.46042821 65280
0.04184011 -0.30956125 0.46171463 65280
0.045775611 -0.30933046 0.46240366 65280
0.057373472 -0.30960989 0.4628213 65280
0.06242973 -0.30960989 0.4628213 65280
0.066763669 -0.30960989 0.4628213 65280
-0.086368755 -0.30833435 0.46349955 65280
-0.083377644 -0.30510867 0.46226996 65280
0.039031539 -0.30610812 0.46015298 65280
0.043187067 -0.30633494 0.46135372 65280
0.047946021 -0.30583403 0.46199754 65280
0.052368231 -0.30567521 0.462082 65280
0.057444088 -0.30651885 0.46187612 65280
0.062914066 -0.30566168 0.46177456 65280
0.067625456 -0.30585754 0.46209833 65280
0.072215244 -0.30526721 0.46354476 65280
0.075867705 -0.3047497 0.46502805 65280
-0.081681512 -0.30090064 0.46473396 65280
0.068432942 -0.3023091 0.46217296 65280
0.072905719 -0.30039242 0.46341854 65280
0.077319421 -0.30086789 0.46520433 65280
0.082276329 -0.30086565 0.46679121 65280
0.087593265 -0.30027401 0.46693587 65280
0.092767276 -0.30068105 0.46756884 65280
0.095656581 -0.30068105 0.46756884 65280
-0.080876894 -0.29825974 0.46734619 65280
-0.077316485 -0.29601517 0.46693516 65280
-0.074541509 -0.29451182 0.468584 65280
0.078544438 -0.29751399 0.46528885 65280
0.082531698 -0.29675174 0.46561319 65280
0.08779417 -0.29705998 0.46623805 65280
0.09256877 -0.29644457 0.46653697 65280
0.09774825 -0.29741549 0.46755481 65280
0.10269485 -0.29631928 0.46875554 65280
0.10625064 -0.29600406 0.47005567 65280
-0.071663521 -0.29281723 0.46948501 65280
-0.067181692 -0.29041889 0.46925005 65280
0.0046103825 -0.28964573 0.46890616 65280
0.0074924096 -0.29017234 0.46975872 65280
0.012527946 -0.29093748 0.46963507 65280
0.017582018 -0.29133332 0.47027403 65280
0.022603633 -0.2915023 0.46973106 65280
0.02761584 -0.29089367 0.4695639 65280
0.032169957 -0.2901096 0.46911249 65280
0.098474793 -0.29225463 0.46768078 65280
0.10216148 -0.29164252 0.46886376 65280
0.10719277 -0.29205576 0.47034284 65280
0.11220244 -0.29221445 0.47169307 65280
0.11660393 -0.29175225 0.47231638 65280
-0.062390029 -0.28918409 0.47226617 65280
-0.057267044 -0.28751993 0.47230166 65280
-0.05220506 -0.28643736 0.47259414 65280
-0.048719868 -0.28613266 0.47417185 65280
-0.021359706 -0.28665006 0.47502929 65280
-0.017655894 -0.28604752 0.4719519 65280
-0.012623104 -0.2863664 0.47178236 65280
-0.0071261195 -0.28722164 0.47227144 65280
-0.0025706366 -0.28805089 0.47179288 65280
0.0024707499 -0.28892189 0.47183928 65280
0.0075159422 -0.28977761 0.4718563 65280
0.011867139 -0.29047668 0.47299463 65280
0.024868948 -0.29047668 0.47299463 65280
0.02774067 -0.29030195 0.47271004 65280
0.032738827 -0.28918409 0.47226617 65280
0.037733462 -0.28815454 0.47196421 65280
0.042506311 -0.28734493 0.47201717 65280
0.04692528 -0.28651294 0.47202802 65280
0.051222362 -0.28584671 0.47092614 65280
0.10213699 -0.2883794 0.46957949 65280
0.1072303 -0.28794283 0.4702363 65280
0.11261104 -0.28792587 0.47123629 65280
0.11744633 -0.28809068 0.47210103 65280
0.12263625 -0.28885415 0.47310227 65280
0.12750435 -0.28782576 0.47383785 65280
0.13148376 -0.28716028 0.474758 65280
-0.046431176 -0.28535652 0.47288564 65280
-0.042770486 -0.28492531 0.47217104 65280
-0.039133169 -0.28458038 0.47159946 65280
-0.034361515 -0.28537449 0.4757075 65280
-0.025508128 -0.28458038 0.47159946 65280
-0.023419853 -0.28535652 0.47288564 65280
0.048617683 -0.28549489 0.47451097 65280
0.052836787 -0.28454489 0.47377023 65280
0.05712232 -0.28261262 0.4744578 65280
0.061316907 -0.28103665 0.47405002 65280
0.11832616 -0.28439316 0.47198215 65280
0.12256258 -0.28385985 0.47283202 65280
0.12731999 -0.28279659 0.47376764 65280
0.13292491 -0.28347319 0.47533417 65280
0.13712873 -0.28301468 0.47667912 65280
0.058764383 -0.28129378 0.47731102 65280
0.062756926 -0.27964005 0.47663301 65280
0.066370696 -0.27767667 0.47611967 65280
0.12866996 -0.27951503 0.47429276 65280
0.13255599 -0.2786608 0.47531322 65280
0.13721925 -0.27888161 0.4763284 65280
0.14232782 -0.27973786 0.47782359 65280
0.1473221 -0.27940625 0.47865433 65280
0.15055311 -0.27899677 0.47909859 65280
0.068323307 -0.27650964 0.47883543 65280
0.072036572 -0.27494037 0.47866669 65280
0.076743439 -0.27299872 0.47926766 65280
0.13775623 -0.275563 0.47662055 65280
0.1428736 -0.27480951 0.47792727 65280
0.14720826 -0.27440044 0.47866756 65280
0.15234624 -0.27513433 0.47961524 65280
0.15685311 -0.27481613 0.48109496 65280
0.078971162 -0.27237302 0.48205429 65280
0.082644783 -0.27061623 0.48128939 65280
0.085797936 -0.26860547 0.48122603 65280
0.14850993 -0.26917329 0.47979158 65280
0.15255079 -0.26976478 0.48035794 65280
0.15734819 -0.27107382 0.48232034 65280
0.088432744 -0.26738241 0.48272574 65280
0.092143975 -0.26578712 0.4838571 65280
0.097425267 -0.26452309 0.48424608 65280
0.10241554 -0.26440325 0.4840267 65280
0.1075464 -0.26400924 0.48480251 65280
0.11244757 -0.26369038 0.48421699 65280
0.11724854 -0.26317227 0.48326555 65280
0.12938707 -0.26305267 0.48304597 65280
0.13368972 -0.26305267 0.48304597 65280
0.13733864 -0.26317227 0.48326555 65280
0.14279833 -0.26475909 0.48355427 65280
0.14721312 -0.26634502 0.48335457 65280
0.15247905 -0.2674118 0.48426747 65280
0.15633167 -0.26879239 0.48452437 65280
0.11299232 -0.26369023 0.48723724 65280
0.11778125 -0.26309529 0.4861379 65280
0.12280855 -0.26241779 0.48640367 65280
0.12755466 -0.26253158 0.48639712 65280
0.1325985 -0.26255336 0.48687094 65280
0.13688044 -0.26277637 0.48630741 65280
0.14103615 -0.26345223 0.48679754 65280
0.07254225 -0.2381793 0.50080162 65280
0.12888342 -0.2381793 0.50080162 65280
0.13249503 -0.2381793 0.50080162 65280
0.13755131 -0.2381793 0.50080162 65280
0.14188524 -0.2381793 0.50080162 65280
0.16283259 -0.2381793 0.50080162 65280
0.16788884 -0.2381793 0.50080162 65280
0.17077814 -0.2381793 0.50080162 65280
0.19810624 -0.23803598 0.50050026 65280
0.20237751 -0.23860212 0.50001055 65280
0.20720072 -0.23860312 0.50025266 65280
0.21195054 -0.2381793 0.50080162 65280
0.21989608 -0.2381793 0.50080162 65280
0.22278537 -0.2381793 0.50080162 65280
0.22711931 -0.2381793 0.50080162 65280
0.23145325 -0.2381793 0.50080162 65280
0.23795414 -0.2381793 0.50080162 65280
0.24217811 -0.23870957 0.50023651 65280
0.24750124 -0.2384803 0.4999944 65280
0.25167829 -0.23860447 0.50057554 65280
-0.07047765 -0.23435265 0.50283629 65280
-0.069033004 -0.23435265 0.50283629 65280
-0.061809778 -0.23435265 0.50283629 65280
-0.057475846 -0.23435265 0.50283629 65280
-0.052419581 -0.23435265 0.50283629 65280
-0.047363322 -0.23435265 0.50283629 65280
-0.041975677 -0.23477845 0.50228626 65280
-0.037973128 -0.23435265 0.50283629 65280
-0.015581124 -0.23435265 0.50283629 65280
-0.012691833 -0.23435265 0.50283629 65280
-0.0083578965 -0.23435265 0.50283629 65280
0.019090366 -0.23435265 0.50283629 65280
0.022701981 -0.23435265 0.50283629 65280
0.027758241 -0.23435265 0.50283629 65280
0.032814499 -0.23435265 0.50283629 65280
0.037870757 -0.23435265 0.50283629 65280
0.042178869 -0.23484942 0.50219458 65280
0.0472183 -0.23477894 0.50204337 65280
0.052269995 -0.23477894 0.50204337 65280
0.056651149 -0.23435265 0.50283629 65280
0.06242973 -0.23435265 0.50283629 65280
0.067965135 -0.23506221 0.50170392 65280
0.07236737 -0.23506212 0.50094897 65280
0.077458441 -0.23520441 0.5012508 65280
0.082276322 -0.23460905 0.50202042 65280
0.087711029 -0.23435265 0.50283629 65280
0.093192585 -0.235062 0.50208157 65280
0.097675957 -0.23527493 0.50140214 65280
0.10271503 -0.2352514 0.50135165 65280
0.10751063 -0.23507629 0.50165874 65280
0.11289033 -0.23477894 0.50204337 65280
0.11791492 -0.23472577 0.50193006 65280
0.12288263 -0.23520441 0.5012508 65280
0.12764806 -0.23493372 0.50098294 65280
0.13247207 -0.23494884 0.50036746 65280
0.13755511 -0.23462483 0.50032353 65280
0.14265417 -0.23511894 0.50072998 65280
0.14739728 -0.23520444 0.50125086 65280
0.15235165 -0.23506302 0.50094849 65280
0.15746564 -0.23460954 0.50032133 65280
0.16246741 -0.23493324 0.50036544 65280
0.16753981 -0.23460954 0.50032133 65280
0.17241456 -0.23490655 0.50061643 65280
0.17742327 -0.23537433 0.50127369 65280
0.18250017 -0.23504996 0.50123006 65280
0.18751934 -0.23537433 0.50127369 65280
0.19258791 -0.23492108 0.50064647 65280
0.19754638 -0.23435481 0.4997772 65280
0.20244451 -0.2345462 0.49954167 65280
0.20754531 -0.23473161 0.5002439 65280
0.21234706 -0.2348215 0.50077486 65280
0.21749596 -0.23528121 0.50110704 65280
0.22255102 -0.23494934 0.50104666 65280
0.2274763 -0.23516481 0.50086004 65280
0.23265652 -0.2347402 0.50057101 65280
0.23752615 -0.23490605 0.50027692 65280
0.24221626 -0.23423818 0.4994995 65280
0.24719878 -0.23452328 0.4994612 65280
0.25226021 -0.23482662 0.50044501 65280
0.25694081 -0.23515716 0.50115013 65280
-0.22649936 -0.22925048 0.50554919 65280
-0.22170466 -0.2294659 0.50515151 65280
-0.2176349 -0.22968134 0.50475377 65280
-0.21277523 -0.22925048 0.50554919 65280
-0.19760644 -0.22925048 0.50554919 65280
-0.19255018 -0.22925048 0.50554919 65280
-0.18732472 -0.22968136 0.50475377 65280
-0.18260553 -0.22980198 0.50477046 65280
-0.17761049 -0.22956069 0.50473702 65280
-0.17250085 -0.22980198 0.50477046 65280
-0.1674066 -0.23019134 0.50448263 65280
-0.16232942 -0.2305291 0.50456035 65280
-0.15740629 -0.22956069 0.50473702 65280
-0.15268451 -0.22968136 0.50475377 65280
-0.14820264 -0.22960667 0.505171 65280
-0.14262319 -0.22911257 0.50524503 65280
-0.13759188 -0.22914702 0.50532109 65280
-0.13235806 -0.22883669 0.50463665 65280
-0.12701568 -0.22934006 0.50504851 65280
-0.12237436 -0.22968136 0.50475377 65280
-0.1172796 -0.23023589 0.50423241 65280
-0.11264935 -0.22982827 0.50410944 65280
-0.1075421 -0.22980198 0.50477046 65280
-0.10256638 -0.22956069 0.50473702 65280
-0.097750016 -0.22947407 0.50429773 65280
-0.092799753 -0.22973248 0.50428611 65280
-0.087681741 -0.22954342 0.50444961 65280
-0.0826331 -0.23018059 0.50411075 65280
-0.077549376 -0.23071375 0.50354415 65280
-0.072448738 -0.23054007 0.50316459 65280
-0.067313857 -0.23022699 0.5024817 65280
-0.062412415 -0.23031963 0.50233799 65280
-0.057456471 -0.23005691 0.50250679 65280
-0.052411962 -0.23062497 0.50300628 65280
-0.04741399 -0.23018491 0.50278711 65280
-0.042610571 -0.23025383 0.5021407 65280
-0.037695542 -0.2302321 0.50283766 65280
-0.032736927 -0.23053469 0.50393963 65280
-0.027591648 -0.22980648 0.5036062 65280
-0.022742609 -0.23054078 0.50316423 65280
-0.017698281 -0.2305145 0.50310749 65280
-0.01264454 -0.23029649 0.50263345 65280
-0.007612688 -0.23048833 0.50305057 65280
-0.0025725274 -0.22997327 0.50365484 65280
0.00246985 -0.22993866 0.50357878 65280
0.0076531917 -0.23003352 0.5030942 65280
0.012504948 -0.23037164 0.50314087 65280
0.017595073 -0.23050569 0.50308847 65280
0.022624822 -0.23038404 0.50282288 65280
0.027632974 -0.23012352 0.50225353 65280
0.032673497 -0.23017524 0.50236762 65280
0.03769986 -0.23012352 0.50225353 65280
0.042528771 -0.23035276 0.5015654 65280
0.047723435 -0.23054785 0.50146163 65280
0.052616194 -0.22994994 0.50159085 65280
0.057497464 -0.23060265 0.5028078 65280
0.062549926 -0.22991207 0.50228512 65280
0.067238756 -0.23044235 0.50151777 65280
0.072484367 -0.23085093 0.50065327 65280
0.077553317 -0.23050673 0.50103045 65280
0.082578808 -0.229949 0.50187445 65280
0.08747448 -0.23029208 0.5022772 65280
0.092710413 -0.22982275 0.50208992 65280
0.097505443 -0.23070116 0.50148314 65280
0.10228172 -0.23045434 0.50125962 65280
0.10733963 -0.22988775 0.50174189 65280
0.11241468 -0.22998349 0.5019505 65280
0.11721901 -0.23021542 0.50171936 65280
0.12243821 -0.23054785 0.50146163 65280
0.12733181 -0.23030303 0.5009312 65280
0.13249542 -0.22985826 0.50121057 65280
0.13714167 -0.22988632 0.5010044 65280
0.1425197 -0.22982019 0.50112778 65280
0.14747067 -0.23037279 0.5010829 65280
0.15242684 -0.23026812 0.50085527 65280
0.15742548 -0.23023312 0.50077957 65280
0.16221167 -0.2305498 0.50048977 65280
0.16691567 -0.23097214 0.50010347 65280
0.17276357 -0.23097184 0.50033009 65280
0.17795359 -0.23023242 0.50106317 65280
0.1826189 -0.22970457 0.50134379 65280
0.18717098 -0.23031896 0.50096565 65280
0.19220567 -0.23088773 0.50014836 65280
0.19727324 -0.23139426 0.49987903 65280
0.20253204 -0.23139426 0.49987903 65280
0.20785911 -0.23085155 0.50016761 65280
0.21276475 -0.23097143 0.50067008 65280
0.21745293 -0.23085093 0.50065327 65280
0.22243179 -0.23109196 0.500687 65280
0.22750027 -0.23085096 0.50065333 65280
0.23248172 -0.23109193 0.50068694 65280
0.23719221 -0.23097214 0.50010347 65280
0.24125582 -0.23139426 0.49987903 65280
0.249144 -0.23139426 0.49987903 65280
0.25288314 -0.2309013 0.50051862 65280
0.2566449 -0.23054944 0.50078118 65280
-0.29150841 -0.22542383 0.50758386 65280
-0.28681332 -0.22574273 0.50741428 65280
-0.2826708 -0.22592597 0.50693929 65280
-0.27753359 -0.22585817 0.50678658 65280
-0.27248189 -0.22585817 0.50678658 65280
-0.26770538 -0.22591238 0.50716227 65280
-0.26290444 -0.22593406 0.50731254 65280
-0.25755924 -0.22542383 0.50758386 65280
-0.25202852 -0.225641 0.50718522 65280
-0.2475643 -0.2259783 0.50680357 65280
-0.24278334 -0.22511867 0.50689667 65280
-0.23745961 -0.2259783 0.50680357 65280
-0.23245038 -0.22573799 0.5067696 65280
-0.22736759 -0.22654164 0.50619668 65280
-0.22259122 -0.22615454 0.50568521 65280
-0.21738935 -0.2255803 0.50472075 65280
-0.21237665 -0.22618395 0.50542927 65280
-0.20759442 -0.22612351 0.50596595 65280
-0.20252644 -0.22644462 0.50601149 65280
-0.19739552 -0.22600031 0.50569171 65280
-0.19232127 -0.22605062 0.5050987 65280
-0.18721743 -0.22561771 0.50480384 65280
-0.18231481 -0.22565441 0.50456691 65280
-0.17759836 -0.22592297 0.50484741 65280
-0.17267889 -0.22571456 0.50505084 65280
-0.1676344 -0.2257635 0.50445861 65280
-0.1625479 -0.22532073 0.50413799 65280
-0.15748291 -0.22564116 0.50418383 65280
-0.15251665 -0.22535771 0.50422132 65280
-0.1474283 -0.22599776 0.50501347 65280
-0.14245634 -0.22571456 0.50505084 65280
-0.13765472 -0.22551903 0.50426131 65280
-0.13269751 -0.22564328 0.50454146 65280
-0.12777442 -0.22583681 0.50497335 65280
-0.12257754 -0.22554114 0.50431252 65280
-0.11751115 -0.22547331 0.50415987 65280
-0.11249896 -0.22550723 0.50423622 65280
-0.10754006 -0.22565441 0.50456691 65280
-0.1024245 -0.22547331 0.50415987 65280
-0.097550757 -0.22571799 0.50370616 65280
-0.092324078 -0.22537065 0.50393128 65280
-0.087337874 -0.22547331 0.50415987 65280
-0.082296878 -0.22543904 0.50408369 65280
-0.077404857 -0.22560076 0.50344491 65280
-0.072707601 -0.22537521 0.50350416 65280
-0.068534561 -0.22560528 0.50295711 65280
-0.063156262 -0.22601232 0.50274068 65280
-0.057316747 -0.22597536 0.50294906 65280
-0.052790184 -0.22519974 0.50355023 65280
-0.047942281 -0.22521512 0.50326753 65280
-0.042718705 -0.22632891 0.50257236 65280
-0.037431762 -0.22543907 0.50338525 65280
-0.032705899 -0.22524519 0.50365186 65280
-0.028216626 -0.22569178 0.50333583 65280
-0.022639697 -0.22632891 0.50257236 65280
-0.017619949 -0.22632891 0.50257236 65280
-0.012241641 -0.22601232 0.50274068 65280
-0.0075804442 -0.22569573 0.502909 65280
-0.0022742581 -0.22590466 0.5030244 65280
0.0021522609 -0.22590375 0.50312191 65280
0.0074788122 -0.22632891 0.50257236 65280
0.012498563 -0.22632891 0.50257236 65280
0.017518315 -0.22632891 0.50257236 65280
0.022538068 -0.22632891 0.50257236 65280
0.02755782 -0.22632891 0.50257236 65280
0.032434147 -0.22607565 0.502707 65280
0.037597325 -0.22632891 0.50257236 65280
0.05767633 -0.22632891 0.50257236 65280
0.060544759 -0.22632891 0.50257236 65280
0.1128936 -0.22632891 0.50257236 65280
-0.31253931 -0.22176278 0.50849229 65280
-0.30756488 -0.2211986 0.50869793 65280
-0.30251759 -0.22119886 0.50869769 65280
-0.29742822 -0.22187927 0.50859725 65280
-0.29256457 -0.22162715 0.50829577 65280
-0.28759599 -0.22176571 0.50778645 65280
-0.28262588 -0.22142164 0.50727248 65280
-0.27745745 -0.22120598 0.50703287 65280
-0.27232429 -0.22123717 0.5068478 65280
-0.26735729 -0.22117947 0.50697154 65280
-0.26244265 -0.22139084 0.50720173 65280
-0.25772244 -0.22123176 0.50711215 65280
-0.25271785 -0.22121118 0.50651318 65280
-0.24754281 -0.22166722 0.50618351 65280
-0.24251375 -0.22166753 0.50618345 65280
-0.23748502 -0.22166725 0.50618356 65280
-0.23270158 -0.22150043 0.50615907 65280
-0.22751351 -0.22152814 0.50616312 65280
-0.22252457 -0.22137898 0.50588375 65280
-0.217922 -0.22147243 0.50529611 65280
-0.21247555 -0.22210279 0.50514299 65280
-0.20745862 -0.22221833 0.50540507 65280
-0.20248367 -0.22197968 0.5053702 65280
-0.19779354 -0.22209902 0.50538766 65280
-0.19302443 -0.22227663 0.50472695 65280
-0.18757439 -0.22252989 0.5045923 65280
-0.18255465 -0.22252989 0.5045923 65280
-0.17753489 -0.22252989 0.5045923 65280
-0.17251515 -0.22252989 0.5045923 65280
-0.16749538 -0.22252989 0.5045923 65280
-0.16247565 -0.22252989 0.5045923 65280
-0.15817299 -0.22252989 0.5045923 65280
-0.15171903 -0.22252989 0.5045923 65280
-0.14741638 -0.22252989 0.5045923 65280
-0.14239663 -0.22252989 0.5045923 65280
-0.13737687 -0.22252989 0.5045923 65280
-0.13235714 -0.22252989 0.5045923 65280
-0.12733738 -0.22252989 0.5045923 65280
-0.12231763 -0.22252989 0.5045923 65280
-0.11729788 -0.22252989 0.5045923 65280
-0.11084391 -0.22252989 0.5045923 65280
-0.10725837 -0.22252989 0.5045923 65280
-0.10295573 -0.22252989 0.5045923 65280
-0.052758206 -0.22252989 0.5045923 65280
-0.31154293 -0.21719524 0.50810832 65280
-0.30726293 -0.21691041 0.50806564 65280
-0.30258641 -0.21702906 0.5080834 65280
-0.29756209 -0.21702906 0.5080834 65280
-0.29213116 -0.21696937 0.50839829 65280
-0.28729427 -0.21626243 0.50843966 65280
-0.2823185 -0.21689728 0.50777596 65280
-0.27936414 -0.21746455 0.50728559 65280
-0.26502201 -0.21746455 0.50728559 65280
-0.2621536 -0.21683139 0.50762224 65280
-0.25813776 -0.21695802 0.50755495 65280
-0.082191892 -0.32060245 0.46188432 65280
-0.077202059 -0.32169509 0.46058604 65280
-0.072355039 -0.32174087 0.4601464 65280
-0.067564219 -0.32156843 0.46074155 65280
-0.063301362 -0.32165098 0.46170431 65280
-0.041194987 -0.31984025 0.46247837 65280
-0.037214782 -0.31995416 0.46162492 65280
-0.032426998 -0.31955388 0.46206427 65280
-0.02806177 -0.31955388 0.46206427 65280
-0.014264064 -0.32012656 0.46289235 65280
-0.086264819 -0.31698552 0.4634299 65280
-0.082657069 -0.31666631 0.46105134 65280
-0.077888757 -0.31802672 0.45985612 65280
-0.06698674 -0.31783584 0.45958003 65280
-0.06344559 -0.31779167 0.46035859 65280
-0.047345366 -0.31704473 0.46249238 65280
-0.042956468 -0.31679749 0.46145353 65280
-0.037318047 -0.316558 0.4602595 65280
-0.032300871 -0.31660736 0.46117711 65280
-0.027961191 -0.31712839 0.46108884 65280
-0.01245174 -0.3167313 0.46152639 65280
-0.0076835565 -0.31695226 0.4627398 65280
-0.0025920717 -0.3156819 0.46280169 65280
0.0024925929 -0.31606025 0.46335557 65280
0.0075753941 -0.31587127 0.46307856 65280
0.012640268 -0.31535131 0.46231684 65280
0.017741276 -0.31641936 0.46259838 65280
0.022106597 -0.31587091 0.4630788 65280
0.027182322 -0.31513384 0.4632819 65280
0.032265961 -0.31513384 0.4632819 65280
0.037349604 -0.31513384 0.4632819 65280
0.04256108 -0.31607679 0.46466815 65280
0.062264331 -0.3162654 0.46494538 65280
0.06736622 -0.3162654 0.46494538 65280
0.070281595 -0.3162654 0.46494538 65280
-0.088157974 -0.31287131 0.46561748 65280
0.038662743 -0.31272444 0.46229783 65280
0.042719524 -0.31296849 0.4633007 65280
0.047782432 -0.31265894 0.46425807 65280
0.052600518 -0.312572 0.46464407 65280
0.057683185 -0.31321132 0.46430415 65280
0.06269224 -0.31283605 0.46374863 65280
0.067744359 -0.31239909 0.46374494 65280
0.072698005 -0.31292352 0.46491027 65280
0.077171549 -0.3122645 0.46678957 65280
-0.086784482 -0.30725282 0.46709475 65280
0.073463596 -0.3091692 0.46475452 65280
0.077335604 -0.30784845 0.46602309 65280
0.082298957 -0.30762517 0.46853274 65280
0.087291613 -0.3071655 0.46893445 65280
0.092036091 -0.3068895 0.46917555 65280
0.097248748 -0.30725598 0.46973577 65280
0.10235064 -0.30725598 0.46973577 65280
0.10599484 -0.30725598 0.46973577 65280
-0.085383989 -0.30358866 0.46942052 65280
0.079909451 -0.30377951 0.46705392 65280
0.083241031 -0.30373374 0.4676446 65280
0.087250836 -0.30350551 0.46795475 65280
0.092377253 -0.30368793 0.46823519 65280
0.097676829 -0.30334473 0.46870089 65280
0.10246269 -0.30332825 0.46925023 65280
0.10752461 -0.30419841 0.47035486 65280
0.11109674 -0.30339479 0.47178879 65280
-0.082427084 -0.29956272 0.47118366 65280
-0.078029014 -0.29725051 0.47203559 65280
0.10342732 -0.2996265 0.46926212 65280
0.10794536 -0.29912534 0.47078699 65280
0.11228684 -0.29946351 0.4723691 65280
0.11697381 -0.29895097 0.47352245 65280
0.12275821 -0.29824656 0.47452617 65280
0.12640241 -0.29824656 0.47452617 65280
-0.075081669 -0.29536584 0.47266021 65280
-0.072311766 -0.29418629 0.47441983 65280
-0.069157615 -0.29227886 0.47316894 65280
0.11294813 -0.29468524 0.47211599 65280
0.11792707 -0.29437685 0.47302425 65280
0.12270648 -0.29416353 0.47371131 65280
0.12766939 -0.29467514 0.47428584 65280
0.13238555 -0.29516807 0.47480398 65280
0.13689716 -0.29458424 0.4757939 65280
0.14025041 -0.2943854 0.47657919 65280
-0.066501893 -0.29162139 0.47578362 65280
-0.062217131 -0.29025796 0.47726372 65280
-0.057854515 -0.28897399 0.47794643 65280
-0.053335492 -0.28768492 0.47674423 65280
-0.017056501 -0.28716746 0.4758867 65280
-0.012721509 -0.28733996 0.47617257 65280
-0.0076687271 -0.2879436 0.47717291 65280
-0.0023033102 -0.28871346 0.47732988 65280
0.002054729 -0.28933129 0.47722787 65280
0.0075671985 -0.28986382 0.47615191 65280
0.012909526 -0.29056922 0.47684655 65280
0.017915525 -0.29079416 0.47594044 65280
0.022384686 -0.29071227 0.47615382 65280
0.027720083 -0.28973842 0.47664335 65280
0.032255005 -0.28875577 0.47711858 65280
0.036833394 -0.287837 0.47643685 65280
0.040833622 -0.28716746 0.4758867 65280
0.12332705 -0.29100102 0.47384837 65280
0.1276688 -0.29100102 0.47384837 65280
0.13264313 -0.28991953 0.47484815 65280
0.13768329 -0.2901862 0.47639582 65280
0.1428242 -0.29056787 0.47768238 65280
0.14719504 -0.2896485 0.47887132 65280
0.15045419 -0.28923717 0.47931653 65280
-0.046936318 -0.28717741 0.47871286 65280
-0.042701442 -0.28640479 0.47742489 65280
-0.037318047 -0.28588963 0.47656617 65280
-0.031529032 -0.28588963 0.47656617 65280
-0.027202733 -0.28606132 0.47685242 65280
-0.022249149 -0.2875638 0.47935691 65280
0.037448879 -0.28769255 0.47957158 65280
0.042457771 -0.28644884 0.47891158 65280
0.047427721 -0.28543562 0.47894686 65280
0.052119359 -0.28403628 0.47840104 65280
0.13813922 -0.28548148 0.47700965 65280
0.1423693 -0.28506887 0.47800928 65280
0.14730147 -0.28551054 0.4790329 65280
0.15242282 -0.28625348 0.47999692 65280
0.15701377 -0.28537598 0.48136955 65280
0.05308168 -0.28338599 0.48157823 65280
0.057671051 -0.28172508 0.4809041 65280
0.062431194 -0.27953622 0.48175645 65280
0.065436922 -0.27822253 0.48064283 65280
0.1435886 -0.28205606 0.4786045 65280
0.14769474 -0.28190216 0.47891289 65280
0.15269375 -0.28138211 0.47995394 65280
0.15713209 -0.28106758 0.48120654 65280
0.16166371 -0.28143477 0.4829618 65280
0.063664369 -0.2786912 0.48435768 65280
0.067520745 -0.27677152 0.48351771 65280
0.072077252 -0.27488339 0.48355085 65280
0.15921842 -0.27611107 0.48204869 65280
0.16273472 -0.27637687 0.48360616 65280
0.16590355 -0.27748883 0.48518574 65280
0.073064283 -0.27458742 0.48597336 65280
0.077001467 -0.27332449 0.48551235 65280
0.081329033 -0.27194452 0.48601955 65280
0.15950838 -0.27055544 0.48471949 65280
0.16279477 -0.27248558 0.48520336 65280
0.16633981 -0.27418995 0.48675105 65280
0.083977789 -0.27073315 0.48802271 65280
0.087433599 -0.2686694 0.48779878 65280
0.092038602 -0.26646531 0.48870632 65280
0.14878856 -0.2656832 0.48787645 65280
0.15283646 -0.26643351 0.48804381 65280
0.15764557 -0.2678726 0.48795819 65280
0.1618264 -0.26944777 0.48870626 65280
0.16503105 -0.27121836 0.48889732 65280
0.094248347 -0.26583213 0.49119499 65280
0.097988166 -0.26479372 0.49050125 65280
0.10237142 -0.26449925 0.49004301 65280
0.10724034 -0.26404506 0.48963737 65280
0.1126032 -0.2637552 0.49041161 65280
0.11760489 -0.26323625 0.49119994 65280
0.12243329 -0.26243174 0.49039805 65280
0.12789886 -0.26208189 0.49035761 65280
0.13224845 -0.26208189 0.49035761 65280
0.13780624 -0.26250786 0.49013111 65280
0.14278863 -0.26333231 0.49050164 65280
0.14725918 -0.26443359 0.49052283 65280
0.1525728 -0.26562935 0.49158591 65280
0.15628494 -0.26607013 0.4916347 65280
0.12348706 -0.26220894 0.49368772 65280
0.12768757 -0.26185712 0.49302533 65280
0.13288359 -0.2620526 0.49339333 65280
0.13733505 -0.26220894 0.49368772 65280
0.14097926 -0.26220894 0.49368772 65280
0.22406724 -0.24933836 0.50053114 65280
0.22625375 -0.24933836 0.50053114 65280
0.24301712 -0.24933836 0.50053114 65280
0.24739017 -0.24933836 0.50053114 65280
0.25176322 -0.24933836 0.50053114 65280
0.05424707 -0.24547718 0.50258416 65280
0.057162445 -0.24547718 0.50258416 65280
0.062264338 -0.24547718 0.50258416 65280
0.067345716 -0.2460475 0.50209212 65280
0.072595708 -0.24640727 0.50147182 65280
0.077493221 -0.24651979 0.50140065 65280
0.082162015 -0.24583299 0.50220615 65280
0.0877738 -0.24547718 0.50258416 65280
0.092576496 -0.24575981 0.50205636 65280
0.097485997 -0.24602444 0.50180775 65280
0.1022591 -0.24590115 0.50179249 65280
0.10735641 -0.24590115 0.50179249 65280
0.11245376 -0.24590115 0.50179249 65280
0.11760435 -0.24601093 0.5020172 65280
0.12268458 -0.24597433 0.50194228 65280
0.12741704 -0.24577786 0.50177711 65280
0.13247994 -0.24641222 0.50118089 65280
0.13747919 -0.24637181 0.5014289 65280
0.1423409 -0.24627781 0.50173378 65280
0.14710909 -0.24568917 0.50218832 65280
0.15264073 -0.24547718 0.50258416 65280
0.15764813 -0.24597433 0.50194228 65280
0.16236569 -0.24577783 0.50177705 65280
0.16740116 -0.24602444 0.50180775 65280
0.17190513 -0.24581635 0.5019508 65280
0.17785867 -0.24573459 0.50244725 65280
0.18241398 -0.24597433 0.50194228 65280
0.18731277 -0.24602878 0.50229084 65280
0.19272703 -0.24547718 0.50258416 65280
0.19783209 -0.24555895 0.50208771 65280
0.20238526 -0.24600276 0.50117213 65280
0.20746216 -0.24620725 0.50106335 65280
0.21272869 -0.2467612 0.50156164 65280
0.21737793 -0.24661785 0.50160015 65280
0.22227724 -0.24639754 0.50115103 65280
0.22759433 -0.2461957 0.50106955 65280
0.23278494 -0.24664107 0.50134754 65280
0.23777336 -0.24661785 0.50160015 65280
0.24254543 -0.24628696 0.50092661 65280
0.24742828 -0.24607834 0.50050277 65280
0.2525287 -0.24616691 0.50098187 65280
0.25784487 -0.24661782 0.50160009 65280
0.26108238 -0.24661785 0.50160015 65280
-0.17096506 -0.24161601 0.50463718 65280
-0.13160761 -0.24161601 0.50463718 65280
-0.12723456 -0.24161601 0.50463718 65280
-0.12207805 -0.24118677 0.50458229 65280
-0.11775961 -0.24161601 0.50463718 65280
-0.11259055 -0.24104367 0.50456399 65280
-0.10828467 -0.24161601 0.50463718 65280
-0.091844477 -0.24150853 0.50441122 65280
-0.087376907 -0.24131534 0.50434405 65280
-0.082643867 -0.24123307 0.50383401 65280
-0.077534355 -0.24118534 0.50373363 65280
-0.072705097 -0.24100226 0.50431627 65280
-0.067409173 -0.24075752 0.50452739 65280
-0.062311843 -0.24075752 0.50452739 65280
-0.05753364 -0.24088016 0.50454307 65280
-0.052361537 -0.24105668 0.503802 65280
-0.047568075 -0.24148579 0.50368714 65280
-0.042593934 -0.24172054 0.5031659 65280
-0.03766527 -0.2414428 0.50359666 65280
-0.032657117 -0.24130338 0.50428861 65280
-0.027153984 -0.24106403 0.50444525 65280
-0.022252856 -0.24167599 0.50379634 65280
-0.017019214 -0.24169213 0.50356704 65280
-0.012917832 -0.24169216 0.5035671 65280
-0.0076944283 -0.241329 0.50403476 65280
-0.0028917468 -0.24092922 0.50454938 65280
0.0021855813 -0.24088016 0.50454307 65280
0.0079615619 -0.24118677 0.50458229 65280
0.01300515 -0.24088016 0.50454307 65280
0.017980622 -0.24081771 0.50392914 65280
0.022138355 -0.24118534 0.50373363 65280
0.02723112 -0.24118531 0.50373358 65280
0.032323889 -0.24118534 0.50373363 65280
0.037416656 -0.24118531 0.50373358 65280
0.042509425 -0.24118531 0.50373358 65280
0.047756955 -0.24131687 0.50348943 65280
0.05264774 -0.24161239 0.50294036 65280
0.057615116 -0.24158382 0.50321978 65280
0.062638491 -0.24191001 0.50317407 65280
0.067487054 -0.24102633 0.50220025 65280
0.072299778 -0.24179633 0.50134957 65280
0.077344544 -0.24071373 0.50145793 65280
0.082522243 -0.24152243 0.50242186 65280
0.08753828 -0.24161063 0.50294119 65280
0.092511356 -0.24131347 0.50232059 65280
0.097422339 -0.24088906 0.50143719 65280
0.10249196 -0.24088009 0.50141841 65280
0.1076008 -0.24096113 0.50158769 65280
0.1124369 -0.24093303 0.50200713 65280
0.11751599 -0.24151608 0.50226343 65280
0.12259171 -0.24093406 0.50200665 65280
0.12739371 -0.24140593 0.50161254 65280
0.13251409 -0.24142961 0.50122529 65280
0.13754274 -0.2417568 0.50126755 65280
0.14239746 -0.24160102 0.50124747 65280
0.14736271 -0.24089129 0.50177574 65280
0.15249148 -0.24137697 0.50206351 65280
0.15734969 -0.24084087 0.50181341 65280
0.16222054 -0.24179633 0.50134957 65280
0.16736536 -0.24151607 0.50140589 65280
0.17272417 -0.24160685 0.50202852 65280
0.17753936 -0.24098131 0.50201261 65280
0.1824317 -0.2411786 0.5020383 65280
0.18751051 -0.24117927 0.50203794 65280
0.19258988 -0.24117866 0.50203836 65280
0.19722451 -0.24164318 0.50163686 65280
0.20212308 -0.24178503 0.50052041 65280
0.20751713 -0.2420951 0.50060725 65280
0.21244773 -0.24117324 0.50126904 65280
0.21751511 -0.24129915 0.50181252 65280
0.2223893 -0.24142961 0.50122529 65280
0.22744881 -0.2417568 0.50126755 65280
0.23257855 -0.24134506 0.5013836 65280
0.23730698 -0.24140376 0.50135231 65280
0.24260218 -0.24189977 0.50044137 65280
0.24763171 -0.24214478 0.50047296 65280
0.25271165 -0.24170634 0.50104994 65280
0.25744975 -0.24087176 0.5018779 65280
0.26053718 -0.24289362 0.50225896 65280
-0.29268166 -0.23646778 0.50737453 65280
-0.28719407 -0.23695892 0.50695157 65280
-0.28222522 -0.23689978 0.50657851 65280
-0.27747512 -0.23702195 0.50659448 65280
-0.2724115 -0.23677766 0.50656265 65280
-0.26766142 -0.23689978 0.50657851 65280
-0.26279914 -0.2371113 0.50703233 65280
-0.25751501 -0.23759395 0.50677574 65280
-0.25277114 -0.23835024 0.50611228 65280
-0.24784878 -0.23785624 0.50611359 65280
-0.24263451 -0.23732582 0.50691831 65280
-0.23728967 -0.2371113 0.50703233 65280
-0.23244098 -0.23714279 0.50685382 65280
-0.22726952 -0.23677766 0.50656265 65280
-0.222359 -0.23737803 0.50588381 65280
-0.2174551 -0.23748642 0.50580329 65280
-0.21245742 -0.23724471 0.50594217 65280
-0.2074367 -0.23767915 0.50621569 65280
-0.20217437 -0.23756355 0.50596821 65280
-0.19728813 -0.23830979 0.50566703 65280
-0.19239616 -0.23802274 0.50567657 65280
-0.18765669 -0.23744819 0.50572067 65280
-0.18235362 -0.23772329 0.50576311 65280
-0.17745517 -0.23785867 0.50558954 65280
-0.17252249 -0.23799159 0.50508332 65280
-0.16759792 -0.23776121 0.50498796 65280
-0.16250944 -0.23776187 0.50498766 65280
-0.15749198 -0.23722474 0.5055564 65280
-0.15233852 -0.23779839 0.50553453 65280
-0.14761132 -0.23824443 0.50567484 65280
-0.14254932 -0.23744819 0.50572067 65280
-0.13741289 -0.23748644 0.50580329 65280
-0.13235959 -0.23789136 0.50565922 65280
-0.12749302 -0.23808956 0.50529253 65280
-0.1223806 -0.23739478 0.50494015 65280
-0.11744361 -0.23776154 0.50498784 65280
-0.11249947 -0.23756371 0.50496238 65280
-0.10754187 -0.23772745 0.50531089 65280
-0.10244025 -0.2381589 0.50549376 65280
-0.097347751 -0.23769458 0.50524127 65280
-0.092825368 -0.23724805 0.50492108 65280
-0.087510295 -0.23676319 0.50457484 65280
-0.082364164 -0.23657441 0.50417185 65280
-0.077440701 -0.23655762 0.50382608 65280
-0.072664365 -0.23648041 0.50397015 65280
-0.067375898 -0.2368594 0.50402027 65280
-0.062771469 -0.23685323 0.50391352 65280
-0.057735216 -0.23733273 0.50408322 65280
-0.052561514 -0.23690628 0.5031774 65280
-0.047491562 -0.23690628 0.5031774 65280
-0.042833664 -0.23716134 0.502702 65280
-0.037130136 -0.23654081 0.50312901 65280
-0.03231981 -0.23655111 0.5041213 65280
-0.027258324 -0.23666868 0.50437343 65280
-0.022600299 -0.23665103 0.50399268 65280
-0.017799351 -0.23630942 0.50360805 65280
-0.012726198 -0.2369063 0.5031774 65280
-0.0075940192 -0.23651916 0.50374359 65280
-0.0024469923 -0.23716274 0.50473988 65280
0.0026592398 -0.23716909 0.50491083 65280
0.007446425 -0.23752815 0.5049575 65280
0.012483295 -0.23700581 0.50456196 65280
0.017523885 -0.2365869 0.50377196 65280
0.022763448 -0.23690628 0.5031774 65280
0.027833397 -0.2369063 0.5031774 65280
0.032179069 -0.23690628 0.5031774 65280
0.037249021 -0.23690628 0.5031774 65280
0.042330798 -0.23761646 0.50298852 65280
0.047367264 -0.23743831 0.5026114 65280
0.052411646 -0.23733138 0.50238502 65280
0.057764273 -0.23666956 0.50324035 65280
0.062598757 -0.23690628 0.5031774 65280
0.06591934 -0.23690543 0.50261152 65280
0.083203726 -0.23711884 0.50278121 65280
0.087224238 -0.2369063 0.5031774 65280
0.091230482 -0.23690574 0.50283784 65280
0.10885452 -0.23733138 0.50238502 65280
0.11247265 -0.23733138 0.50238502 65280
0.11753803 -0.23733138 0.50238502 65280
0.12043254 -0.23733138 0.50238502 65280
-0.31645015 -0.23304209 0.50862974 65280
-0.31215036 -0.2330941 0.50874364 65280
-0.3068147 -0.23334759 0.5085482 65280
-0.30286148 -0.23334759 0.5085482 65280
-0.29774031 -0.23382111 0.50826705 65280
-0.29229179 -0.23322238 0.50762779 65280
-0.28739202 -0.23315084 0.50712472 65280
-0.28217688 -0.23289298 0.50709736 65280
-0.27727568 -0.23319709 0.50722605 65280
-0.27260858 -0.23331177 0.50712734 65280
-0.26751378 -0.23297934 0.50706726 65280
-0.26244077 -0.23351721 0.5076049 65280
-0.2572968 -0.23313871 0.50744581 65280
-0.25251886 -0.23315085 0.50712478 65280
-0.24748158 -0.23319727 0.50722593 65280
-0.2426855 -0.23347677 0.50783229 65280
-0.23767465 -0.23347855 0.50752252 65280
-0.23241572 -0.23297158 0.50708163 65280
-0.22745605 -0.23189606 0.50612456 65280
-0.22271755 -0.23283091 0.50565886 65280
-0.21715331 -0.23274954 0.5053876 65280
-0.21256623 -0.23280986 0.50603503 65280
-0.20754859 -0.23181641 0.50629908 65280
-0.20247439 -0.23218021 0.50634372 65280
-0.19736455 -0.23248547 0.50599134 65280
-0.19240555 -0.23249996 0.50570899 65280
-0.18761154 -0.2331906 0.50523394 65280
-0.18259743 -0.23294793 0.5052011 65280
-0.17747031 -0.2331906 0.50523394 65280
-0.17241494 -0.23288783 0.50507134 65280
-0.16757083 -0.23349783 0.50442338 65280
-0.16250543 -0.23349783 0.50442338 65280
-0.15758191 -0.23306932 0.50521761 65280
-0.15251194 -0.23306929 0.50521755 65280
-0.14732713 -0.23269469 0.50569987 65280
-0.14243603 -0.2325348 0.50578493 65280
-0.13731584 -0.23245321 0.50560802 65280
-0.13273826 -0.23268367 0.5057624 65280
-0.12784004 -0.23234621 0.50537544 65280
-0.12278011 -0.23299915 0.50506604 65280
-0.11807476 -0.23324226 0.50455928 65280
-0.11226345 -0.23328358 0.50482047 65280
-0.10760668 -0.23306929 0.50521755 65280
-0.10253673 -0.23306929 0.50521755 65280
-0.097466782 -0.23306929 0.50521755 65280
-0.092124023 -0.23323913 0.5052405 65280
-0.087558404 -0.23295018 0.50471455 65280
-0.082182892 -0.23349783 0.50442338 65280
-0.031529032 -0.23349783 0.50442338 65280
-0.027187273 -0.23349783 0.50442338 65280
-0.0025839705 -0.23349783 0.50442338 65280
0.0024814152 -0.23349783 0.50442338 65280
0.0068231747 -0.23349783 0.50442338 65280
0.013335814 -0.23349783 0.50442338 65280
-0.31592187 -0.22887388 0.50892061 65280
-0.31268895 -0.22849342 0.50900096 65280
-0.30762038 -0.22839111 0.50902635 65280
-0.30252731 -0.22849345 0.50900102 65280
-0.29767957 -0.22819428 0.5084703 65280
-0.29289597 -0.22830065 0.50790751 65280
-0.28776181 -0.22885434 0.50739574 65280
-0.28279719 -0.22895032 0.5072189 65280
-0.2774336 -0.2293531 0.50727433 65280
-0.27239639 -0.22911146 0.50724107 65280
-0.26730976 -0.22907254 0.5073427 65280
-0.26196024 -0.22866637 0.50736988 65280
-0.25760958 -0.22866154 0.50774992 65280
-0.25275224 -0.22884867 0.50746161 65280
-0.24739243 -0.22923225 0.5072577 65280
-0.24253917 -0.22872788 0.50757736 65280
-0.23725253 -0.22923231 0.50725776 65280
-0.23290686 -0.22923228 0.50725776 65280
-0.31157249 -0.22455288 0.50917947 65280
-0.30723074 -0.22455288 0.50917947 65280
-0.30216536 -0.22455288 0.50917947 65280
-0.066602282 -0.34506565 0.45529485 65280
-0.06292548 -0.34506562 0.45529488 65280
-0.057777949 -0.34506565 0.45529485 65280
-0.052630424 -0.34506562 0.45529488 65280
-0.048953615 -0.34506565 0.45529485 65280
-0.081309505 -0.33987135 0.45805672 65280
-0.077231258 -0.34134334 0.45699093 65280
-0.072169088 -0.34169933 0.45645559 65280
-0.067218252 -0.34186286 0.45586532 65280
-0.062813908 -0.34186128 0.45586607 65280
-0.057675514 -0.34186131 0.45586613 65280
-0.05253711 -0.34186128 0.45586607 65280
-0.047632262 -0.34202871 0.45664829 65280
-0.042335372 -0.34311783 0.4563306 65280
-0.032379713 -0.34216887 0.45683518 65280
-0.027628152 -0.34181923 0.45702109 65280
-0.022690725 -0.34154099 0.45716903 65280
-0.017333092 -0.34052068 0.45771155 65280
-0.012920927 -0.34052068 0.45771155 65280
-0.0071717412 -0.34140605 0.45724076 65280
-0.0028097131 -0.34100765 0.45745263 65280
0.0025216546 -0.33987135 0.45805672 65280
0.0061984598 -0.33987135 0.45805672 65280
-0.082281083 -0.33690467 0.45918107 65280
-0.077461071 -0.33717448 0.45807499 65280
-0.072228141 -0.33672526 0.45746452 65280
-0.067068569 -0.33657554 0.45726097 65280
-0.06277585 -0.33712465 0.4580071 65280
-0.057643086 -0.33713663 0.45802435 65280
-0.052567557 -0.33752352 0.4585501 65280
-0.049184054 -0.33782309 0.45895711 65280
-0.030569591 -0.3379235 0.45909241 65280
-0.027444309 -0.33743656 0.45935139 65280
-0.022664461 -0.33776122 0.45917878 65280
-0.017333092 -0.3385728 0.45874718 65280
-0.012920927 -0.3385728 0.45874718 65280
-0.0060575581 -0.33813992 0.45897734 65280
-0.0026258726 -0.33727425 0.4594377 65280
0.0025216544 -0.33727425 0.4594377 65280
0.0072489749 -0.33708873 0.45953634 65280
0.010610626 -0.33662492 0.45978287 65280
0.022866644 -0.33727422 0.45943764 65280
0.027523929 -0.33727425 0.4594377 65280
0.031690974 -0.3364085 0.45989794 65280
-0.08204487 -0.33337855 0.46150908 65280
-0.077495053 -0.33278739 0.46069074 65280
-0.072228141 -0.33219635 0.45987254 65280
-0.067124814 -0.33232743 0.46005443 65280
-0.062825434 -0.33285257 0.46078193 65280
-0.058048639 -0.33386624 0.46076432 65280
-0.054101143 -0.3346771 0.46081856 65280
0.0025216546 -0.3346771 0.46081856 65280
0.007669182 -0.3346771 0.46081856 65280
0.010610626 -0.3346771 0.46081856 65280
0.022866644 -0.33424422 0.46104872 65280
0.027033689 -0.33424425 0.46104878 65280
0.031200733 -0.3346771 0.46081856 65280
-0.082353637 -0.32864031 0.46330765 65280
-0.077388577 -0.32844552 0.46211848 65280
-0.072380766 -0.32822052 0.46157473 65280
-0.06736704 -0.32806909 0.46184042 65280
-0.062719829 -0.32863969 0.46330807 65280
-0.037602682 -0.32717323 0.46435532 65280
-0.03301046 -0.32722193 0.46459383 65280
-0.086742885 -0.32265845 0.4656989 65280
-0.082808919 -0.32422903 0.46320269 65280
-0.078682661 -0.32514691 0.46248814 65280
-0.066899002 -0.3247605 0.4619385 65280
-0.062307417 -0.32428819 0.46379417 65280
-0.057952169 -0.32347232 0.46602115 65280
-0.046256829 -0.32245556 0.46561798 65280
-0.04221027 -0.32354742 0.46484876 65280
-0.038087212 -0.32353291 0.46334633 65280
-0.032622643 -0.32342619 0.46382779 65280
-0.027851623 -0.32426223 0.46477062 65280
-0.012591171 -0.3228519 0.46529403 65280
-0.0077596176 -0.32306656 0.46585941 65280
-0.0026212167 -0.32241726 0.46620464 65280
0.0010509326 -0.32298994 0.46703273 65280
0.0091399038 -0.32298994 0.46703273 65280
0.011345986 -0.32298994 0.46703273 65280
0.01822016 -0.32282215 0.46576288 65280
0.021980271 -0.32288507 0.46623906 65280
0.025317846 -0.32298994 0.46703273 65280
0.062085897 -0.32298994 0.46703273 65280
0.067202643 -0.32284677 0.46682572 65280
0.072338611 -0.3234483 0.46641141 65280
0.077528477 -0.32363924 0.46668756 65280
0.081205286 -0.32428852 0.46634227 65280
-0.090869196 -0.31779566 0.46979457 65280
-0.088645793 -0.3194468 0.46702909 65280
-0.049424678 -0.31998026 0.46523529 65280
-0.0055278321 -0.31940985 0.46440598 65280
-0.0026094841 -0.31979012 0.46495891 65280
0.002516252 -0.3208358 0.46647921 65280
0.0076501821 -0.32093087 0.46661747 65280
0.011295043 -0.32026547 0.46564999 65280
0.022259118 -0.31998026 0.46523529 65280
0.027409166 -0.31969148 0.46609667 65280
0.032584567 -0.32018998 0.46682268 65280
0.036712144 -0.32049027 0.46700278 65280
0.042865809 -0.32028428 0.46696126 65280
0.047048483 -0.31923923 0.46704501 65280
0.052626453 -0.31907883 0.46735048 65280
0.057491072 -0.3193852 0.46693593 65280
0.062569998 -0.3197622 0.46620071 65280
0.067667507 -0.31961966 0.4659934 65280
0.072526664 -0.31887949 0.46619815 65280
0.077542178 -0.31973684 0.46721804 65280
0.082161769 -0.31964922 0.4686203 65280
0.085617453 -0.31779566 0.46979457 65280
-0.090869196 -0.31519851 0.47117549 65280
0.07828936 -0.31505746 0.46747524 65280
0.082263879 -0.31460401 0.46932942 65280
0.087227389 -0.31451145 0.47040832 65280
0.092391297 -0.3151648 0.47088459 65280
0.097325668 -0.31501296 0.47089657 65280
0.10240956 -0.31482673 0.47061825 65280
0.10750887 -0.31470302 0.47043222 65280
0.11171733 -0.31419674 0.47125503 65280
-0.089081466 -0.31084472 0.47122532 65280
0.0828944 -0.31066146 0.46962389 65280
0.087844461 -0.31050846 0.47027156 65280
0.092531048 -0.31047791 0.47066528 65280
0.097662412 -0.31050092 0.47070026 65280
0.10280838 -0.31056994 0.4708052 65280
0.10731488 -0.31001699 0.47053286 65280
0.11229981 -0.31028241 0.4719362 65280
0.11601237 -0.31130281 0.47324687 65280
-0.087075479 -0.30570245 0.47358194 65280
0.10983519 -0.30651623 0.47126162 65280
0.11319162 -0.30607083 0.47291422 65280
0.11760838 -0.3058086 0.47418627 65280
0.12229712 -0.30494544 0.47521144 65280
0.12771897 -0.30524284 0.47582182 65280
0.13225472 -0.3049995 0.47631529 65280
0.13635737 -0.30480996 0.47669917 65280
-0.082633086 -0.3007839 0.47581968 65280
0.11880873 -0.30189699 0.47485036 65280
0.12246694 -0.30125144 0.47519359 65280
0.12779547 -0.30097535 0.4753404 65280
0.1323615 -0.30069232 0.47594392 65280
0.13748622 -0.30146402 0.47689265 65280
0.1425806 -0.30122024 0.47815484 65280
-0.077312395 -0.29794478 0.47770676 65280
-0.072831072 -0.29543868 0.4782843 65280
0.1380693 -0.29743403 0.47665703 65280
0.14249337 -0.29709128 0.47783029 65280
0.14694358 -0.297627 0.47938585 65280
0.1525353 -0.29636925 0.48118719 65280
-0.068523698 -0.29363391 0.47999898 65280
-0.06405367 -0.29156369 0.48034468 65280
-0.059771329 -0.2907894 0.48188892 65280
0.0032386354 -0.29009953 0.4807457 65280
0.0076337904 -0.29044446 0.48131725 65280
0.012783926 -0.29104811 0.4823176 65280
0.017543424 -0.29124111 0.48193187 65280
0.022297055 -0.2907894 0.48188892 65280
0.026629375 -0.29009953 0.4807457 65280
0.14791684 -0.29340586 0.47950679 65280
0.15266676 -0.29240102 0.48078036 65280
0.15725501 -0.29250717 0.48224968 65280
0.16135964 -0.29182425 0.48360381 65280
-0.056257963 -0.29026812 0.48386493 65280
-0.053129889 -0.28923792 0.48214763 65280
-0.046693146 -0.28888524 0.48441145 65280
-0.036990039 -0.28768867 0.48240504 65280
-0.034733661 -0.28717583 0.48154509 65280
-0.026797425 -0.28820148 0.48326495 65280
-0.023929458 -0.28897071 0.4845548 65280
-0.017220408 -0.28863689 0.48114574 65280
-0.012843694 -0.28880864 0.48143208 65280
-0.0077345204 -0.28910911 0.48193294 65280
-0.0026172437 -0.28966716 0.48286316 65280
0.0025215147 -0.2903969 0.48407963 65280
0.0069338204 -0.29052567 0.48429427 65280
0.027498227 -0.29026809 0.4838649 65280
0.03286029 -0.28907952 0.48302463 65280
0.03801658 -0.28779212 0.48380616 65280
0.042762492 -0.28656721 0.48337892 65280
0.045582369 -0.28588647 0.48223066 65280
0.15784873 -0.28798512 0.48208565 65280
0.16243388 -0.28852311 0.48380172 65280
0.16577181 -0.28857782 0.48532996 65280
0.043662481 -0.28637588 0.4859345 65280
0.047955256 -0.28526574 0.48501459 65280
0.052720688 -0.28375438 0.48643845 65280
0.057155143 -0.28214806 0.48625711 65280
0.06018528 -0.28072903 0.48497292 65280
0.16376849 -0.28484422 0.48429504 65280
