# .PCD v0.7 - Point Cloud Data file format
VERSION 0.7
FIELDS x y z rgba
SIZE 4 4 4 4
TYPE F F F U
COUNT 1 1 1 1
WIDTH 1076
HEIGHT 1
VIEWPOINT 0 0 0 1 0 0 0
POINTS 1076
DATA ascii
-0.12839298 -0.083513767 0.43262264 16711680
-0.13225748 -0.081610829 0.43161082 16711680
-0.13765292 -0.081768334 0.43169457 16711680
-0.14261238 -0.082135767 0.43188995 16711680
0.20027475 -0.087070048 0.43394724 16711680
0.19710945 -0.08682403 0.43357384 16711680
0.19230245 -0.086265862 0.43257597 16711680
0.18749455 -0.086724043 0.4320645 16711680
0.18282807 -0.086724043 0.4320645 16711680
0.17771509 -0.086411357 0.43261907 16711680
0.17183432 -0.086552143 0.43253943 16711680
0.16725452 -0.086800039 0.43197909 16711680
0.16253483 -0.087028384 0.431723 16711680
0.15783721 -0.087180972 0.43155238 16711680
0.152435 -0.087009341 0.43174425 16711680
0.14700621 -0.08695215 0.43180823 16711680
0.14234231 -0.08695209 0.43180823 16711680
0.13766471 -0.087028444 0.43172297 16711680
0.1330145 -0.08695215 0.43180823 16711680
0.12759897 -0.086781055 0.4320004 16711680
0.12219537 -0.086494476 0.43231991 16711680
0.11771379 -0.086723536 0.43234736 16711680
0.11288328 -0.086953104 0.43294129 16711680
0.10742172 -0.087067485 0.43281344 16711680
0.10202367 -0.086496174 0.43345341 16711680
0.097320467 -0.086839408 0.43306968 16711680
0.092437796 -0.086551905 0.43253928 16711680
0.08795552 -0.086494416 0.43232003 16711680
0.082731366 -0.086349428 0.43268904 16711680
0.07708104 -0.087184399 0.43381935 16711680
0.07240013 -0.086954683 0.43331975 16711680
0.067721367 -0.086724043 0.4320645 16711680
0.063054882 -0.086724043 0.4320645 16711680
0.057523202 -0.086788595 0.43343732 16711680
0.05212377 -0.08672905 0.43433225 16711680
0.047441781 -0.086901307 0.43442383 16711680
0.042772636 -0.086956561 0.43407577 16711680
0.037521377 -0.08681187 0.43366852 16711680
0.032085784 -0.086381435 0.43301496 16711680
0.027447719 -0.086528301 0.43293127 16711680
0.022611983 -0.087410748 0.43242964 16711680
0.017621312 -0.086824059 0.43357384 16711680
0.013125982 -0.086880565 0.43416119 16711680
0.0074410215 -0.086916298 0.43432888 16711680
0.0024199784 -0.086432755 0.43401292 16711680
-0.0024994612 -0.08604005 0.43396589 16711680
-0.0069417953 -0.086432755 0.43401292 16711680
-0.012610987 -0.086211085 0.43377373 16711680
-0.018014796 -0.086496174 0.43345341 16711680
-0.022723779 -0.087032378 0.43399021 16711680
-0.027247123 -0.087122738 0.43454158 16711680
-0.032152064 -0.08741802 0.43469858 16711680
-0.03761439 -0.08741802 0.43469858 16711680
-0.043076709 -0.08741805 0.43469861 16711680
-0.047665358 -0.087758988 0.43431363 16711680
-0.052343473 -0.086382151 0.43358156 16711680
-0.057021596 -0.086382151 0.43358156 16711680
-0.062834144 -0.086658478 0.43395495 16711680
-0.06804733 -0.08741802 0.43469858 16711680
-0.072339147 -0.087762535 0.43488175 16711680
-0.077723444 -0.087555826 0.43477187 16711680
-0.082093298 -0.087555826 0.43477187 16711680
-0.08722119 -0.087516457 0.43475091 16711680
-0.093017951 -0.08810702 0.43506494 16711680
-0.12423122 -0.088107049 0.43506494 16711680
-0.12754765 -0.086901337 0.43442383 16711680
-0.13231693 -0.086186975 0.43347776 16711680
-0.13758801 -0.08710289 0.43411922 16711680
-0.14217886 -0.086729079 0.43433225 16711680
-0.16324781 -0.088107049 0.43506494 16711680
-0.1679298 -0.088107049 0.43506494 16711680
-0.17105113 -0.088107049 0.43506494 16711680
-0.18821844 -0.08741805 0.43469858 16711680
-0.19290042 -0.08741805 0.43469858 16711680
-0.1978054 -0.087122768 0.43454158 16711680
-0.2022644 -0.087418079 0.43469861 16711680
-0.20655623 -0.087762564 0.43488175 16711680
-0.23035634 -0.08741805 0.43469858 16711680
0.19742759 -0.091186702 0.43432412 16711680
0.1921144 -0.090994835 0.43408364 16711680
0.1874499 -0.090995133 0.4340837 16711680
0.18269759 -0.091296673 0.43374068 16711680
0.1777377 -0.091114104 0.43371913 16711680
0.17237508 -0.091462642 0.43376032 16711680
0.16704716 -0.091749549 0.43322638 16711680
0.16237271 -0.091825306 0.4331409 16711680
0.15782514 -0.092032552 0.43262187 16711680
0.1527279 -0.091794223 0.43294814 16711680
0.14737999 -0.092142165 0.43298894 16711680
0.14217092 -0.091976345 0.43296951 16711680
0.13753049 -0.091900826 0.43305519 16711680
0.13290147 -0.091749787 0.43322653 16711680
0.12749496 -0.091580451 0.43341967 16711680
0.12205821 -0.091599226 0.43339822 16711680
0.11740062 -0.091599226 0.43339822 16711680
0.11276866 -0.091371953 0.43365484 16711680
0.10781014 -0.091114104 0.43371919 16711680
0.10247326 -0.091339111 0.43390048 16711680
0.097240046 -0.091296673 0.43374074 16711680
0.092578731 -0.091296673 0.43374068 16711680
0.087917402 -0.091296643 0.43374074 16711680
0.082483619 -0.091183424 0.43386921 16711680
0.077050574 -0.09164387 0.43449166 16711680
0.072387859 -0.09175992 0.43474212 16711680
0.067721367 -0.090844303 0.43425527 16711680
0.063054882 -0.091530979 0.43462047 16711680
0.057824366 -0.091437757 0.43521807 16711680
0.05213856 -0.091313303 0.43601474 16711680
0.047470853 -0.091538846 0.4357571 16711680
0.04301931 -0.091876388 0.43508723 16711680
0.037389196 -0.091187626 0.4344379 16711680
0.031969652 -0.091145664 0.43391207 16711680
0.027320243 -0.091296673 0.43374068 16711680
0.022642989 -0.091145635 0.43391213 16711680
0.017953891 -0.091377378 0.43441287 16711680
0.012681194 -0.092095822 0.43533266 16711680
0.0073020458 -0.091605067 0.43545255 16711680
0.0022491217 -0.091718256 0.43472007 16711680
-0.0021089688 -0.091186702 0.43432412 16711680
-0.007407248 -0.091450572 0.43407431 16711680
-0.012563378 -0.090904236 0.4339782 16711680
-0.017800622 -0.090994895 0.43408358 16711680
-0.022529975 -0.092066705 0.43515694 16711680
-0.027026854 -0.091791153 0.43518347 16711680
-0.032085128 -0.091619492 0.43509218 16711680
-0.037680924 -0.091141641 0.43489873 16711680
-0.042547397 -0.091631114 0.43499729 16711680
-0.047385335 -0.091531008 0.43462041 16711680
-0.051987 -0.091070116 0.43399781 16711680
-0.057496056 -0.090844274 0.43425533 16711680
-0.062718078 -0.091236711 0.43446392 16711680
-0.067892298 -0.091631114 0.43499726 16711680
-0.072400227 -0.091840625 0.43541428 16711680
-0.076992154 -0.092066675 0.43515691 16711680
-0.082465604 -0.091991156 0.43524262 16711680
-0.08796984 -0.091840386 0.43541408 16711680
-0.092756316 -0.091538846 0.4357571 16711680
-0.097520351 -0.091313004 0.43601459 16711680
-0.10244335 -0.091608584 0.43590751 16711680
-0.10726489 -0.091836005 0.43607691 16711680
-0.11265853 -0.090921849 0.43625277 16711680
-0.11795518 -0.090938002 0.43644434 16711680
-0.12282647 -0.091119647 0.43652523 16711680
-0.12737624 -0.091609061 0.43590775 16711680
-0.13255286 -0.091404408 0.43591216 16711680
-0.13749415 -0.091672838 0.43537536 16711680
-0.14273024 -0.091313571 0.43601486 16711680
-0.14712094 -0.091322333 0.43677452 16711680
-0.15154283 -0.092241019 0.43726298 16711680
-0.15856582 -0.092241019 0.43726298 16711680
-0.16237299 -0.09103176 0.4363369 16711680
-0.16788723 -0.090938032 0.43644434 16711680
-0.17167538 -0.091138631 0.43667683 16711680
-0.17885445 -0.092241019 0.43726298 16711680
-0.1822879 -0.091689795 0.43696991 16711680
-0.18715796 -0.091313809 0.43601498 16711680
-0.19233111 -0.091765374 0.43550009 16711680
-0.19707868 -0.091763347 0.43524724 16711680
-0.2026805 -0.091141671 0.43489873 16711680
-0.20786017 -0.091829717 0.43542641 16711680
-0.21231624 -0.091457188 0.43613845 16711680
-0.21771452 -0.091776997 0.4366388 16711680
-0.22264835 -0.091769576 0.43600562 16711680
-0.22757784 -0.091471255 0.43583447 16711680
-0.23232737 -0.091369599 0.43595031 16711680
-0.23731813 -0.091106147 0.43604189 16711680
-0.24077392 -0.091538846 0.43575719 16711680
0.39234844 -0.095685899 0.43909469 16711680
0.38797858 -0.095823705 0.43916798 16711680
0.38298449 -0.096374899 0.43946105 16711680
0.19762282 -0.096414059 0.43559864 16711680
0.19264184 -0.096623898 0.43537199 16711680
0.18715543 -0.09608525 0.43515423 16711680
0.18243662 -0.095625818 0.43453243 16711680
0.17778562 -0.095625818 0.43453243 16711680
0.17287625 -0.095397681 0.43441114 16711680
0.16693333 -0.094941348 0.43416858 16711680
0.16383266 -0.094941348 0.43416858 16711680
0.15143004 -0.094941348 0.43416858 16711680
0.14755422 -0.094941348 0.43416858 16711680
0.14212808 -0.094941348 0.43416858 16711680
0.13708951 -0.095283568 0.43435052 16711680
0.13313618 -0.095488906 0.43445972 16711680
0.12706774 -0.095528066 0.43448046 16711680
0.12228388 -0.095488906 0.43445972 16711680
0.11732283 -0.095283568 0.43435052 16711680
0.11267184 -0.094941348 0.43416858 16711680
0.10802086 -0.094941348 0.43416858 16711680
0.10228465 -0.096036464 0.43475077 16711680
0.097168565 -0.096310258 0.43489635 16711680
0.092517577 -0.095625818 0.43453243 16711680
0.087866589 -0.095625818 0.43453243 16711680
0.082447067 -0.095457047 0.43472579 16711680
0.07702291 -0.096010447 0.43524033 16711680
0.072025038 -0.096849024 0.43581206 16711680
0.067715719 -0.096490145 0.43584132 16711680
0.063058831 -0.097156554 0.43622726 16711680
0.057620227 -0.096896023 0.43652913 16711680
0.052183278 -0.096858531 0.4365721 16711680
0.04752899 -0.097007036 0.43639952 16711680
0.042737059 -0.097136021 0.43578836 16711680
0.037720531 -0.096371591 0.43540078 16711680
0.032036912 -0.095400751 0.43479037 16711680
0.027713865 -0.095488906 0.43445972 16711680
0.022510853 -0.095726252 0.43490946 16711680
0.017760497 -0.096725136 0.43556988 16711680
0.012368202 -0.096822321 0.43640423 16711680
0.00713218 -0.096858501 0.43657216 16711680
0.0025292113 -0.097231299 0.43614116 16711680
-0.0021192357 -0.096590966 0.43572515 16711680
-0.0075188577 -0.09608525 0.43515417 16711680
-0.012937203 -0.095970333 0.43499881 16711680
-0.017766051 -0.096314222 0.43535146 16711680
-0.022303596 -0.097231328 0.4361411 16711680
-0.027364478 -0.097187907 0.43598077 16711680
-0.032521129 -0.096203566 0.43559462 16711680
-0.037824102 -0.095860928 0.43541253 16711680
-0.042583488 -0.096875072 0.43571153 16711680
-0.047105297 -0.096657753 0.43564734 16711680
-0.052548438 -0.096615791 0.43569583 16711680
-0.058017828 -0.096490115 0.43584132 16711680
-0.062674627 -0.096490115 0.43584132 16711680
-0.067185238 -0.096692264 0.43592313 16711680
-0.072121799 -0.096784532 0.43665862 16711680
-0.077354163 -0.096888721 0.43674842 16711680
-0.08270295 -0.096602321 0.43663725 16711680
-0.087658972 -0.096784294 0.43665847 16711680
-0.092233092 -0.097007036 0.43639943 16711680
-0.097431555 -0.097192764 0.43639514 16711680
-0.10279237 -0.096869826 0.43632656 16711680
-0.10779443 -0.09693253 0.43648568 16711680
-0.11261775 -0.096560806 0.43691722 16711680
-0.11738265 -0.096336514 0.43717551 16711680
-0.1222973 -0.096608073 0.43709347 16711680
-0.12753034 -0.09657833 0.43668628 16711680
-0.13268158 -0.096858531 0.43657216 16711680
-0.13737974 -0.096784294 0.43665853 16711680
-0.14207958 -0.096709818 0.43674478 16711680
-0.14724791 -0.096473545 0.43724838 16711680
-0.15232196 -0.095963746 0.43760648 16711680
-0.15756066 -0.095662862 0.43774399 16711680
-0.16240834 -0.096486062 0.43700328 16711680
-0.16743053 -0.096540838 0.43717086 16711680
-0.17251892 -0.096038729 0.43752059 16711680
-0.17741111 -0.095665962 0.43795159 16711680
-0.18225816 -0.096029073 0.43732092 16711680
-0.18726999 -0.097144574 0.43647256 16711680
-0.19249052 -0.097066224 0.43612197 16711680
-0.19777328 -0.096814185 0.43578205 16711680
-0.20224229 -0.096010476 0.43524033 16711680
-0.20711628 -0.096658319 0.4356477 16711680
-0.2126759 -0.096873611 0.43655494 16711680
-0.21765742 -0.096784294 0.43665853 16711680
-0.22251049 -0.096669167 0.43655956 16711680
-0.22749853 -0.096784294 0.43665853 16711680
-0.23215988 -0.096784323 0.43665847 16711680
-0.23735553 -0.096949726 0.43667784 16711680
-0.24026683 -0.094964594 0.43644607 16711680
0.39222771 -0.099277824 0.44075295 16711680
0.38766646 -0.099130869 0.44092643 16711680
0.38292575 -0.099204332 0.44083965 16711680
0.379473 -0.099475354 0.4411096 16711680
0.19949022 -0.10041678 0.43707991 16711680
0.063061342 -0.10041678 0.43707991 16711680
0.057170097 -0.10069054 0.43722549 16711680
0.052596629 -0.100759 0.43726185 16711680
0.04910839 -0.10041678 0.43707991 16711680
0.011900514 -0.10041678 0.43707991 16711680
0.0076371133 -0.100759 0.43726185 16711680
0.0025985464 -0.10041678 0.43707991 16711680
-0.053988434 -0.10041678 0.43707991 16711680
-0.057864249 -0.10041678 0.43707991 16711680
-0.062515229 -0.10041678 0.43707991 16711680
-0.067166224 -0.10041678 0.43707991 16711680
-0.072747409 -0.10096434 0.43737105 16711680
-0.077943251 -0.10093939 0.437924 16711680
-0.082723886 -0.10163772 0.43798062 16711680
-0.086932898 -0.100759 0.43726185 16711680
-0.091196299 -0.10041678 0.43707991 16711680
-0.10747473 -0.10041681 0.43707991 16711680
-0.11212572 -0.10041681 0.43707991 16711680
-0.1176028 -0.10099024 0.43757358 16711680
-0.12271339 -0.10062292 0.43783668 16711680
-0.12762901 -0.10110128 0.43744376 16711680
-0.13196993 -0.10096437 0.43737105 16711680
-0.13724105 -0.10096437 0.43737105 16711680
-0.14246786 -0.1010035 0.43739179 16711680
-0.14796057 -0.10076827 0.43783307 16711680
-0.15261546 -0.10076827 0.43783307 16711680
-0.15720819 -0.10087934 0.43770322 16711680
-0.16204628 -0.10069057 0.43722549 16711680
-0.16793755 -0.10041681 0.43707991 16711680
-0.17278652 -0.1007683 0.43783301 16711680
-0.17744137 -0.1007683 0.43783301 16711680
-0.18245064 -0.10081324 0.43761423 16711680
-0.18809181 -0.10041681 0.43707991 16711680
-0.19274279 -0.10041681 0.43707991 16711680
-0.19584346 -0.10041681 0.43707991 16711680
-0.21444738 -0.10041681 0.43707991 16711680
-0.21785811 -0.10096437 0.43737105 16711680
-0.22219905 -0.10096437 0.43737105 16711680
-0.22750244 -0.10178909 0.43801537 16711680
-0.23269925 -0.10156372 0.43806711 16711680
-0.237241 -0.10140756 0.4377324 16711680
0.39186347 -0.10419399 0.441677 16711680
0.3873094 -0.10452357 0.44183758 16711680
0.38222346 -0.10421255 0.44199255 16711680
0.37749872 -0.10368779 0.44283468 16711680
0.3718369 -0.10424909 0.44364783 16711680
0.36841828 -0.10556147 0.44434562 16711680
-0.22917551 -0.10520783 0.43962732 16711680
-0.23266375 -0.10486561 0.43944538 16711680
0.39158934 -0.10924006 0.44309258 16711680
0.38752034 -0.10895076 0.44320306 16711680
0.3823919 -0.10908809 0.44327608 16711680
0.37747166 -0.10896561 0.4436641 16711680
0.37271184 -0.1085538 0.44392323 16711680
0.36835504 -0.10884634 0.44528332 16711680
0.39113641 -0.11389065 0.44462147 16711680
0.38743779 -0.1136758 0.4448849 16711680
0.38266435 -0.11381879 0.44470912 16711680
0.37754476 -0.11357081 0.44479471 16711680
0.37229496 -0.11372703 0.44506311 16711680
0.36740455 -0.11341754 0.44669333 16711680
0.39095575 -0.11684307 0.44581392 16711680
0.38707992 -0.11684304 0.44581392 16711680
0.38211888 -0.1173906 0.44610506 16711680
0.37777796 -0.11752751 0.44617778 16711680
0.3723518 -0.11684307 0.44581392 16711680
0.36677438 -0.11844549 0.44808161 16711680
0.36537534 -0.12300292 0.4490892 16711680
0.36439607 -0.12245724 0.45151719 16711680
0.36333379 -0.12685865 0.45356625 16711680
0.36182094 -0.13147053 0.4554036 16711680
0.36077523 -0.13534495 0.45791671 16711680
0.3611967 -0.14009351 0.46015838 16711680
0.36258021 -0.14460236 0.46246141 16711680
0.36376104 -0.14863372 0.46611503 16711680
0.36411268 -0.1531792 0.46815437 16711680
0.36382502 -0.15859324 0.4680129 16711680
0.36432305 -0.16282472 0.4713954 16711680
0.36556816 -0.16624022 0.47604278 16711680
0.36482111 -0.16500902 0.47368941 16711680
0.36562565 -0.17200935 0.47571257 16711680
0.36537534 -0.17616025 0.47735342 16711680
0.3657091 -0.18082592 0.48058924 16711680
0.36671036 -0.18388879 0.48448291 16711680
0.36715177 -0.18835264 0.48610136 16711680
0.36717728 -0.19392872 0.48736742 16711680
0.36717728 -0.19803819 0.48955235 16711680
0.36637661 -0.20140359 0.49304065 16711680
0.36581719 -0.20385766 0.49661067 16711680
0.36277014 -0.20944199 0.49618217 16711680
0.36898178 -0.32736003 0.55888033 16711680
0.37518731 -0.33105281 0.56254268 16711680
0.37376633 -0.32968941 0.5604021 16711680
0.36587599 -0.33010232 0.56033844 16711680
0.3762269 -0.33470717 0.56301343 16711680
0.37657347 -0.33978841 0.5651111 16711680
0.37709218 -0.34364122 0.56829226 16711680
0.3772651 -0.34767407 0.57081413 16711680
0.3769193 -0.35195768 0.57233673 16711680
0.37612224 -0.35656014 0.57508588 16711680
0.37581074 -0.36053637 0.57787961 16711680
0.37657347 -0.36582559 0.57895535 16711680
0.37639907 -0.37025252 0.58206415 16711680
0.37653708 -0.37490883 0.58506858 16711680
0.37726206 -0.37857378 0.58724374 16711680
0.3785069 -0.38255668 0.58936155 16711680
0.37968305 -0.38678277 0.59179735 16711680
0.37950662 -0.39242953 0.59385598 16711680
0.3793419 -0.39556837 0.59741253 16711680
0.37674639 -0.40003043 0.59751987 16711680
0.18105099 -0.063856423 0.42783353 16711680
0.17947741 -0.063856423 0.42783353 16711680
0.17396986 -0.063856423 0.42783353 16711680
0.16688874 -0.062467068 0.42709476 16711680
0.1613812 -0.063856423 0.42783353 16711680
0.15902083 -0.063856423 0.42783353 16711680
0.14092463 -0.063856423 0.42783353 16711680
0.13699067 -0.063856423 0.42783353 16711680
0.13226992 -0.063856423 0.42783353 16711680
0.12754917 -0.063856423 0.42783353 16711680
0.12282842 -0.063856423 0.42783353 16711680
0.19099776 -0.067339152 0.42900577 16711680
0.18702337 -0.066905737 0.42874709 16711680
0.18271141 -0.066746533 0.4285613 16711680
0.17756808 -0.066994965 0.42865288 16711680
0.17278101 -0.066355973 0.42803007 16711680
0.16746446 -0.066137552 0.42763075 16711680
0.16216448 -0.06666097 0.42770681 16711680
0.15709233 -0.066848576 0.42845368 16711680
0.15260604 -0.067459047 0.42880526 16711680
0.14772418 -0.066905737 0.42874709 16711680
0.14240341 -0.066474795 0.42837629 16711680
0.13687246 -0.066653252 0.42818806 16711680
0.13215946 -0.066653252 0.42818806 16711680
0.12744646 -0.066653252 0.42818806 16711680
0.12271763 -0.066771865 0.42806235 16711680
0.1180491 -0.06641531 0.42843902 16711680
0.1125458 -0.067132652 0.42878273 16711680
0.10705803 -0.067684591 0.42930266 16711680
0.10271921 -0.068209231 0.42929852 16711680
0.09759748 -0.068733931 0.42929438 16711680
0.092884481 -0.068733931 0.42929438 16711680
0.087385982 -0.068733931 0.42929438 16711680
0.081887484 -0.068733931 0.42929438 16711680
0.077194512 -0.068024606 0.43004978 16711680
0.062248375 -0.068379283 0.42967203 16711680
0.057530858 -0.067684591 0.42930266 16711680
0.052420586 -0.068031907 0.42948735 16711680
0.048870012 -0.068024606 0.43004978 16711680
0.02605306 -0.068024606 0.43004978 16711680
0.022905894 -0.068024606 0.43004978 16711680
0.015824772 -0.068024606 0.43004978 16711680
-0.084097758 -0.068024606 0.43004978 16711680
-0.1390049 -0.068379313 0.42967203 16711680
-0.14245744 -0.068209261 0.42929852 16711680
-0.14782786 -0.068024635 0.43004978 16711680
0.19787154 -0.072199941 0.43136376 16711680
0.19293134 -0.07168743 0.43029848 16711680
0.18743059 -0.071699798 0.42917249 16711680
0.1818977 -0.071530074 0.42879906 16711680
0.17767766 -0.071525782 0.42916089 16711680
0.17276858 -0.071063042 0.42902264 16711680
0.16806534 -0.07106328 0.42902276 16711680
0.16259322 -0.071004331 0.42908576 16711680
0.15732041 -0.071089298 0.42927253 16711680
0.15217355 -0.07142511 0.42926913 16711680
0.14795721 -0.071223736 0.42948571 16711680
0.1430279 -0.07082808 0.4292753 16711680
0.13749862 -0.071063042 0.42902264 16711680
0.13201219 -0.071063042 0.42902264 16711680
0.12730952 -0.071063042 0.42902264 16711680
0.12260685 -0.071063042 0.42902264 16711680
0.11793326 -0.07082808 0.4292753 16711680
0.1124438 -0.071520507 0.42964342 16711680
0.10695435 -0.072212875 0.43001163 16711680
0.10246018 -0.071862996 0.43010879 16711680
0.097570673 -0.071166933 0.43002179 16711680
0.092854336 -0.071284801 0.42989564 16711680
0.088133365 -0.071520478 0.42964348 16711680
0.082388401 -0.071594179 0.42993429 16711680
0.077161133 -0.071977198 0.43026379 16711680
0.072459839 -0.071585178 0.43068451 16711680
0.067551225 -0.071768224 0.43076614 16711680
0.063037574 -0.071898878 0.43034807 16711680
0.057548571 -0.072153986 0.43007466 16711680
0.05205271 -0.071977198 0.43026385 16711680
0.047328442 -0.071585178 0.43068457 16711680
0.0426125 -0.07150659 0.43076864 16711680
0.037894264 -0.071428567 0.43085298 16711680
0.032611188 -0.071569145 0.43090487 16711680
0.027223751 -0.07143876 0.43061927 16711680
0.022212986 -0.071742296 0.43051642 16711680
0.017502572 -0.071742296 0.43051642 16711680
0.012959573 -0.071680963 0.43086132 16711680
0.007615786 -0.072401136 0.43108249 16711680
0.0025177859 -0.071966797 0.43139079 16711680
-0.0030218363 -0.072426915 0.43201306 16711680
-0.017174609 -0.072426975 0.43201301 16711680
-0.022619009 -0.072025239 0.43132746 16711680
-0.027880281 -0.071803153 0.43108809 16711680
-0.032523341 -0.072021067 0.43189159 16711680
-0.058920421 -0.072192788 0.43226603 16711680
-0.062854379 -0.072192788 0.43226603 16711680
-0.066788346 -0.072192788 0.43226603 16711680
-0.077016637 -0.072192788 0.43226603 16711680
-0.082561418 -0.071442068 0.43104312 16711680
-0.087864205 -0.071272492 0.43102163 16711680
-0.092361495 -0.071504772 0.43105078 16711680
-0.097079828 -0.071845472 0.43208134 16711680
-0.10062039 -0.072192788 0.43226603 16711680
-0.11320905 -0.072192818 0.43226603 16711680
-0.1179298 -0.072192818 0.43226603 16711680
-0.12265055 -0.072192818 0.43226603 16711680
-0.12755914 -0.071918041 0.43166694 16711680
-0.1325687 -0.071818203 0.43068251 16711680
-0.13771759 -0.07152015 0.42964327 16711680
-0.14225285 -0.07187295 0.42926449 16711680
-0.14750277 -0.071514249 0.4301255 16711680
-0.1521126 -0.071663529 0.43060037 16711680
-0.15721785 -0.071645528 0.43084243 16711680
-0.16240214 -0.071506828 0.43076867 16711680
-0.16766353 -0.071227163 0.43084645 16711680
-0.17306252 -0.071501464 0.43141308 16711680
-0.17713393 -0.072196692 0.43170181 16711680
-0.1824467 -0.072192818 0.43226603 16711680
-0.18716747 -0.072192818 0.43226603 16711680
-0.19282955 -0.071898758 0.43162432 16711680
-0.19789439 -0.071272522 0.43102163 16711680
-0.20268333 -0.071849376 0.43151709 16711680
-0.20762402 -0.072192818 0.43226603 16711680
0.20105928 -0.077752203 0.43295693 16711680
0.19811559 -0.076070786 0.43190107 16711680
0.19272304 -0.076277196 0.43071643 16711680
0.18810499 -0.075692832 0.42959672 16711680
0.1829686 -0.075594246 0.4295443 16711680
0.17696685 -0.076210409 0.42987195 16711680
0.17247251 -0.076382935 0.42996368 16711680
0.16783941 -0.076148808 0.4302167 16711680
0.16333988 -0.075888276 0.42986247 16711680
0.15765929 -0.075517178 0.42978653 16711680
0.15222232 -0.075341582 0.42997625 16711680
0.14731625 -0.075946987 0.43015659 16711680
0.14279938 -0.07622689 0.43013236 16711680
0.13781622 -0.075963974 0.4301939 16711680
0.13273337 -0.075995475 0.43013516 16711680
0.12717301 -0.075458676 0.42984974 16711680
0.1222766 -0.076034784 0.43006173 16711680
0.11779732 -0.076070994 0.43030119 16711680
0.11257917 -0.075808465 0.43079081 16711680
0.10688523 -0.076374054 0.43109155 16711680
0.10193776 -0.076376915 0.43060759 16711680
0.097460747 -0.076071024 0.43030119 16711680
0.092762172 -0.076148808 0.4302167 16711680
0.088296801 -0.075687528 0.43007931 16711680
0.082809515 -0.076253235 0.43030649 16711680
0.077124424 -0.07672298 0.43071076 16711680
0.072430804 -0.07672298 0.43071076 16711680
0.067737192 -0.07672298 0.43071076 16711680
0.063043572 -0.076723009 0.43071079 16711680
0.057567682 -0.076723009 0.43071079 16711680
0.052081134 -0.076374054 0.43109152 16711680
0.047177009 -0.076629907 0.43165231 16711680
0.042667739 -0.076023877 0.43147174 16711680
0.037958503 -0.075907588 0.4315986 16711680
0.032739859 -0.076215714 0.43163657 16711680
0.026996501 -0.076023996 0.43147165 16711680
0.022365544 -0.07672298 0.43071082 16711680
0.017618958 -0.076256931 0.431218 16711680
0.013077706 -0.076455414 0.43184265 16711680
0.0074074641 -0.076023936 0.43147168 16711680
0.0019047558 -0.075907648 0.43159857 16711680
-0.0028474256 -0.076288581 0.43230456 16711680
-0.007620208 -0.075901091 0.43272775 16711680
-0.012358047 -0.075745761 0.43289673 16711680
-0.017249607 -0.076436281 0.43214387 16711680
-0.022713706 -0.075875223 0.43147343 16711680
-0.028068006 -0.076455414 0.43184265 16711680
-0.032742418 -0.075901628 0.43272796 16711680
-0.037356287 -0.075766385 0.43351895 16711680
-0.041916884 -0.076361418 0.43391624 16711680
-0.047359109 -0.076083452 0.43388173 16711680
-0.052766599 -0.075876474 0.43320528 16711680
-0.057863772 -0.075901121 0.43272769 16711680
-0.062574461 -0.075901389 0.43272784 16711680
-0.067358017 -0.075668931 0.43298179 16711680
-0.072145596 -0.075436056 0.4332355 16711680
-0.077418312 -0.075604618 0.43325648 16711680
-0.082752451 -0.07553032 0.43290803 16711680
-0.087696657 -0.075901389 0.43272784 16711680
-0.092378289 -0.075979143 0.43264341 16711680
-0.097206414 -0.075669467 0.43298206 16711680
-0.10186031 -0.075493336 0.43345466 16711680
-0.10720226 -0.076163024 0.43372983 16711680
-0.11271875 -0.075389683 0.43328628 16711680
-0.11769588 -0.075513929 0.43315104 16711680
-0.12227364 -0.075824082 0.43281257 16711680
-0.12736659 -0.076114029 0.43229172 16711680
-0.13272387 -0.076476932 0.43049905 16711680
-0.13705048 -0.075692862 0.42959672 16711680
-0.14312978 -0.076076239 0.4298006 16711680
-0.14787048 -0.076576978 0.43039039 16711680
-0.15320297 -0.076754421 0.43179709 16711680
-0.15798533 -0.07659927 0.43196636 16711680
-0.16272938 -0.076522022 0.43205106 16711680
-0.16747606 -0.076444715 0.43213579 16711680
-0.17235383 -0.076133996 0.43247405 16711680
-0.17715052 -0.075978905 0.43264326 16711680
-0.18219154 -0.076086491 0.43275076 16711680
-0.18763945 -0.075733155 0.43270701 16711680
-0.19275442 -0.076133996 0.43247399 16711680
-0.19746229 -0.076133996 0.43247405 16711680
-0.20221925 -0.076056451 0.4325586 16711680
-0.20702717 -0.075901419 0.43272784 16711680
-0.21204114 -0.075436115 0.43323544 16711680
-0.21702999 -0.075840443 0.43363926 16711680
-0.22270736 -0.075865179 0.43373331 16711680
-0.22767913 -0.076246738 0.43347776 16711680
-0.23231235 -0.076363057 0.43335083 16711680
-0.23747009 -0.075493366 0.43345466 16711680
-0.24182776 -0.075944394 0.43403423 16711680
0.20061098 -0.081213892 0.43253234 16711680
0.19748448 -0.080293715 0.43204308 16711680
0.19383691 -0.079603583 0.43167612 16711680
0.17247251 -0.079143465 0.43143147 16711680
0.16934602 -0.079143465 0.43143147 16711680
0.11775885 -0.079143465 0.43143147 16711680
0.11306911 -0.079833627 0.43179843 16711680
0.10759774 -0.079833627 0.43179843 16711680
0.10212637 -0.079833627 0.43179843 16711680
0.097436629 -0.079143465 0.43143147 16711680
0.093528509 -0.079143465 0.43143147 16711680
0.083367407 -0.079143465 0.43143147 16711680
0.075551167 -0.079143465 0.43143147 16711680
0.056401383 -0.079488546 0.43161497 16711680
0.052102454 -0.081213892 0.43253234 16711680
0.047569036 -0.081627965 0.43275252 16711680
0.04294629 -0.080129385 0.4319557 16711680
0.038033225 -0.079833627 0.43179843 16711680
0.032226879 -0.079932213 0.43185085 16711680
0.027481303 -0.079488546 0.43161497 16711680
0.022400755 -0.079833627 0.43179843 16711680
0.01748769 -0.080129385 0.4319557 16711680
0.012797941 -0.080918133 0.43237507 16711680
0.0077630728 -0.080398262 0.43209866 16711680
0.0017658845 -0.080937833 0.43238553 16711680
-0.0026239082 -0.081826985 0.43298417 16711680
-0.0073941946 -0.081365556 0.43349382 16711680
-0.012074962 -0.081442028 0.43340871 16711680
-0.01746206 -0.080523729 0.43216538 16711680
-0.022933431 -0.079833627 0.43179843 16711680
-0.027640462 -0.081520259 0.43282107 16711680
-0.032438591 -0.081365258 0.43349373 16711680
-0.037321411 -0.080597401 0.4343439 16711680
-0.042045109 -0.080520362 0.43442878 16711680
-0.047456123 -0.080808312 0.43410996 16711680
-0.052633844 -0.081038743 0.43357179 16711680
-0.057425976 -0.080867231 0.43291432 16711680
-0.06220153 -0.081288218 0.43357861 16711680
-0.067212924 -0.081418753 0.43366048 16711680
-0.07267794 -0.080897391 0.43380544 16711680
-0.077961743 -0.080981314 0.4339188 16711680
-0.082715362 -0.080828249 0.43408912 16711680
-0.087361604 -0.080981821 0.43391907 16711680
-0.09211953 -0.080828279 0.43408912 16711680
-0.096910581 -0.080597878 0.43434417 16711680
-0.10229009 -0.080458671 0.43470481 16711680
-0.10771829 -0.080106109 0.43466145 16711680
-0.1126238 -0.080521882 0.43442959 16711680
-0.11729594 -0.080598414 0.43434444 16711680
-0.12245598 -0.08132723 0.43353641 16711680
-0.1274928 -0.081016272 0.43258908 16711680
-0.13157912 -0.079143494 0.43143147 16711680
-0.14434566 -0.080523759 0.43216538 16711680
-0.14799322 -0.081213921 0.43253234 16711680
-0.15308332 -0.081136972 0.43374985 16711680
-0.15774027 -0.081213027 0.43366444 16711680
-0.16231209 -0.081442863 0.43340907 16711680
-0.16717976 -0.081834108 0.43320185 16711680
-0.17257656 -0.081281871 0.43358776 16711680
-0.17751276 -0.080866605 0.43404657 16711680
-0.18244605 -0.080709547 0.43401444 16711680
-0.18749049 -0.081212014 0.4336639 16711680
-0.1924867 -0.081777632 0.43324384 16711680
-0.19773647 -0.081518859 0.43332371 16711680
-0.20257768 -0.081288248 0.43357861 16711680
-0.20771378 -0.080797166 0.43389633 16711680
-0.21280664 -0.080694407 0.43452132 16711680
-0.21771947 -0.079898775 0.43489099 16711680
-0.22257069 -0.080290765 0.43468425 16711680
-0.22742453 -0.081023753 0.43407854 16711680
-0.2328817 -0.08065924 0.43404946 16711680
-0.23802549 -0.080521643 0.43471265 16711680
-0.24197063 -0.07992819 0.43476111 16711680
0.39635959 -0.084343553 0.43816042 16711680
0.39294535 -0.085379213 0.43814483 16711680
0.38744685 -0.085379213 0.43814483 16711680
0.38184214 -0.084550709 0.43815732 16711680
0.37723532 -0.084824353 0.43784985 16711680
0.3724094 -0.084551156 0.43815756 16711680
0.047412712 -0.084664524 0.43436709 16711680
0.0098947734 -0.084664524 0.43436709 16711680
-0.028404795 -0.084664524 0.43436709 16711680
-0.032312907 -0.084664524 0.43436709 16711680
-0.037002653 -0.084664524 0.43436709 16711680
-0.042474024 -0.084664524 0.43436709 16711680
-0.047945388 -0.084664524 0.43436709 16711680
-0.068267599 -0.084664524 0.43436709 16711680
-0.073269978 -0.085216641 0.43466064 16711680
-0.077256262 -0.085009605 0.43455055 16711680
-0.082336813 -0.085009605 0.43455055 16711680
-0.087026566 -0.084664524 0.43436709 16711680
-0.092497945 -0.085354686 0.43473402 16711680
-0.097969308 -0.086044788 0.43510097 16711680
-0.10275142 -0.085816026 0.43535683 16711680
-0.10757065 -0.085511684 0.43569833 16711680
-0.11223362 -0.085587949 0.43561307 16711680
-0.1174057 -0.08592093 0.43544689 16711680
-0.12249413 -0.085661858 0.43502319 16711680
-0.12610777 -0.084664553 0.43436709 16711680
-0.14486672 -0.086044818 0.43510097 16711680
-0.14799322 -0.086044818 0.43510097 16711680
-0.15300308 -0.08543539 0.43578368 16711680
-0.15761773 -0.085587978 0.43561307 16711680
-0.16189238 -0.085552424 0.43500099 16711680
-0.16753381 -0.085354716 0.43473402 16711680
-0.17320058 -0.085872293 0.43500924 16711680
-0.1777392 -0.085968584 0.43518627 16711680
-0.18238465 -0.086044818 0.43510097 16711680
-0.18644908 -0.08549273 0.43480742 16711680
-0.19254577 -0.084664553 0.43436709 16711680
-0.19723552 -0.084664553 0.43436709 16711680
-0.20270687 -0.084664553 0.43436709 16711680
-0.20779982 -0.085079402 0.43481416 16711680
-0.2123923 -0.085587651 0.43561298 16711680
-0.21769422 -0.085292727 0.43617344 16711680
-0.22258931 -0.085732371 0.4352437 16711680
-0.22771883 -0.086044818 0.43510097 16711680
-0.23292583 -0.085749596 0.43510583 16711680
-0.23726475 -0.085816056 0.43535686 16711680
-0.24117506 -0.085816026 0.43535683 16711680
0.3955428 -0.088138402 0.43847939 16711680
0.39244816 -0.089431673 0.43816027 16711680
0.38764098 -0.089441657 0.4383795 16711680
0.38253003 -0.089431435 0.43816015 16711680
0.37741977 -0.088943332 0.43871853 16711680
0.37235317 -0.088378757 0.4393622 16711680
0.36905131 -0.089412928 0.44096914 16711680
-0.10813041 -0.088805377 0.43656877 16711680
-0.12141801 -0.088805377 0.43656877 16711680
-0.14903538 -0.089265466 0.43681341 16711680
-0.15290627 -0.089791268 0.43709299 16711680
-0.15717731 -0.090013117 0.43721095 16711680
-0.17417762 -0.089840561 0.43711922 16711680
-0.17749952 -0.090013117 0.43721095 16711680
-0.18199384 -0.089150459 0.43675226 16711680
-0.21364963 -0.088805377 0.43656877 16711680
-0.21755773 -0.088805377 0.43656877 16711680
-0.22146586 -0.088805377 0.43656877 16711680
0.39289042 -0.092946112 0.43877047 16711680
0.38689798 -0.0934062 0.43901512 16711680
0.38172436 -0.093932033 0.4392947 16711680
0.37748677 -0.094027847 0.43984905 16711680
0.37238473 -0.093507499 0.44081134 16711680
0.36800444 -0.093875259 0.44266227 16711680
0.37706253 -0.098294646 0.44161436 16711680
0.37266073 -0.097935766 0.44232962 16711680
0.36753508 -0.098349661 0.44442359 16711680
0.37569469 -0.1012277 0.44317389 16711680
0.37256819 -0.1012277 0.44317389 16711680
0.36718103 -0.10291225 0.44497564 16711680
0.36466736 -0.10202453 0.44699532 16711680
0.36576337 -0.10758761 0.44784987 16711680
0.36466736 -0.10549229 0.44883919 16711680
0.36526835 -0.1108354 0.45151836 16711680
0.36524743 -0.11439407 0.45130715 16711680
0.36470118 -0.11637768 0.45326796 16711680
0.36431888 -0.12030417 0.45501599 16711680
0.36312714 -0.12483862 0.45799324 16711680
0.36211577 -0.12890965 0.45902529 16711680
0.36285123 -0.13908055 0.46613213 16711680
0.36384588 -0.14323288 0.46701866 16711680
0.36466736 -0.14641204 0.47059658 16711680
0.3651602 -0.149304 0.47326681 16711680
0.36475196 -0.15367779 0.47106209 16711680
0.36475196 -0.15643832 0.47252992 16711680
0.36574286 -0.15945858 0.476401 16711680
0.36623836 -0.16167024 0.47870955 16711680
0.36681327 -0.16900581 0.48034474 16711680
0.36631522 -0.17438176 0.4820706 16711680
0.3671453 -0.17763773 0.48568949 16711680
0.36780936 -0.18039623 0.48866633 16711680
0.36837909 -0.18767059 0.49026898 16711680
0.36871284 -0.19147688 0.49304792 16711680
0.36837912 -0.19596282 0.49467805 16711680
0.36731133 -0.20100191 0.49849001 16711680
0.37515342 -0.32979095 0.56696838 16711680
0.37409335 -0.32812345 0.56721431 16711680
0.37671989 -0.33221272 0.56825602 16711680
0.37760204 -0.33707458 0.56933093 16711680
0.37794614 -0.34104586 0.57219768 16711680
0.3786343 -0.3448531 0.57573211 16711680
0.37766585 -0.34987885 0.57696968 16711680
0.37711829 -0.35351259 0.57873195 16711680
0.37569472 -0.36071762 0.58114713 16711680
0.37464243 -0.36048743 0.58215737 16711680
0.37776455 -0.36270523 0.5846957 16711680
0.37745485 -0.36699057 0.58629459 16711680
0.37723535 -0.37112385 0.590078 16711680
0.37725794 -0.3786611 0.59068787 16711680
0.3778758 -0.38146335 0.59353703 16711680
0.37918004 -0.38462538 0.59709507 16711680
0.38037738 -0.3905434 0.60040355 16711680
0.37985867 -0.38795376 0.59789407 16711680
0.37985867 -0.39210826 0.60010308 16711680
0.37985867 -0.39764756 0.60304838 16711680
0.18359029 -0.051870853 0.42712352 16711680
0.16693202 -0.051870853 0.42712352 16711680
0.16256914 -0.051520646 0.42693731 16711680
0.15820625 -0.051870853 0.42712352 16711680
0.14075473 -0.051870853 0.42712352 16711680
0.13758172 -0.051870853 0.42712352 16711680
0.13282222 -0.051870853 0.42712352 16711680
0.1280627 -0.051870853 0.42712352 16711680
0.1248897 -0.051870853 0.42712352 16711680
0.19628231 -0.056073248 0.42935798 16711680
0.19266115 -0.055903763 0.42898473 16711680
0.1879524 -0.054821849 0.42823943 16711680
0.1823892 -0.055523634 0.42793313 16711680
0.17706147 -0.055396199 0.42786542 16711680
0.1722711 -0.055556893 0.42769912 16711680
0.16742842 -0.055960059 0.42728433 16711680
0.16264665 -0.056121528 0.42711848 16711680
0.15744948 -0.055401027 0.42766201 16711680
0.15223196 -0.05588603 0.42861122 16711680
0.14680278 -0.055390358 0.42814544 16711680
0.14218757 -0.055556893 0.42769912 16711680
0.13738471 -0.055879772 0.42736742 16711680
0.13263811 -0.055879772 0.42736742 16711680
0.12791407 -0.055718064 0.42753318 16711680
0.12243125 -0.055275559 0.42798996 16711680
0.11691488 -0.055734336 0.42861155 16711680
0.11217164 -0.055613816 0.42873624 16711680
0.10743818 -0.056073248 0.42935798 16711680
0.10426517 -0.056073248 0.42935798 16711680
0.080467634 -0.056073248 0.42935798 16711680
0.07888113 -0.056073248 0.42935798 16711680
0.063016102 -0.056073248 0.42935798 16711680
0.057463348 -0.056073248 0.42935798 16711680
0.053497091 -0.056073248 0.42935798 16711680
0.036838815 -0.056073248 0.42935798 16711680
0.032872561 -0.056073248 0.42935798 16711680
0.028113052 -0.056073248 0.42935798 16711680
0.023353543 -0.056073248 0.42935798 16711680
-0.057558075 -0.056073248 0.42935798 16711680
-0.062317595 -0.056073248 0.42935798 16711680
-0.0670771 -0.056073248 0.42935798 16711680
-0.073423102 -0.056073248 0.42935798 16711680
-0.077389374 -0.056073248 0.42935798 16711680
-0.082942113 -0.056073248 0.42935798 16711680
-0.097220644 -0.056073248 0.42935798 16711680
-0.10198015 -0.056073248 0.42935798 16711680
-0.10515316 -0.056073248 0.42935798 16711680
0.20104182 -0.05957526 0.43122 16711680
0.19777294 -0.059193343 0.43051365 16711680
0.19264707 -0.060470104 0.42917898 16711680
0.18770275 -0.061188817 0.42842856 16711680
0.18311164 -0.061214566 0.42812765 16711680
0.17764565 -0.06111902 0.42801398 16711680
0.17228526 -0.060946256 0.42774233 16711680
0.16705605 -0.060356915 0.42710534 16711680
0.16235371 -0.060932636 0.42760029 16711680
0.15747762 -0.061214566 0.42812765 16711680
0.15309405 -0.060629517 0.42901209 16711680
0.14769208 -0.060967684 0.42845979 16711680
0.14246026 -0.061394453 0.42794019 16711680
0.13710886 -0.06105274 0.42747539 16711680
0.1324356 -0.0606924 0.42785004 16711680
0.12768611 -0.060812533 0.42772517 16711680
0.12297085 -0.0606924 0.42785004 16711680
0.11747795 -0.061148763 0.42847019 16711680
0.11197533 -0.060948521 0.42867836 16711680
0.10729197 -0.060390055 0.42926225 16711680
0.10258263 -0.059990346 0.42967904 16711680
0.097853348 -0.059750915 0.42992917 16711680
0.093113795 -0.059591711 0.43009624 16711680
0.087570071 -0.05959177 0.43009618 16711680
0.082023561 -0.059671342 0.43001264 16711680
0.077269867 -0.059750915 0.42992911 16711680
0.072524212 -0.059512168 0.43017977 16711680
0.067772381 -0.059432596 0.43026331 16711680
0.06302163 -0.059910804 0.42976251 16711680
0.057487894 -0.060310185 0.42934564 16711680
0.051943175 -0.059990376 0.42967895 16711680
0.04718015 -0.05959177 0.43009618 16711680
0.042428397 -0.05959177 0.43009618 16711680
0.037681878 -0.059671283 0.4300127 16711680
0.032971684 -0.060230374 0.42942908 16711680
0.027442534 -0.060310215 0.42934564 16711680
0.02190787 -0.060310215 0.42934564 16711680
0.017120153 -0.059910566 0.42976236 16711680
0.012304731 -0.059352785 0.43034664 16711680
0.0077553093 -0.059581995 0.43073824 16711680
0.0029842667 -0.059479684 0.43084556 16711680
-0.0020304993 -0.060275674 0.43159243 16711680
-0.0075832531 -0.060275644 0.4315924 16711680
-0.01311437 -0.059694588 0.43109471 16711680
-0.017837666 -0.059581995 0.43073824 16711680
-0.022583649 -0.059933305 0.4308441 16711680
-0.02733928 -0.059933305 0.43084416 16711680
-0.032094903 -0.059933305 0.4308441 16711680
-0.036906309 -0.059694588 0.43109471 16711680
-0.042372987 -0.059675306 0.43127319 16711680
-0.048039056 -0.05957523 0.43122 16711680
-0.052734621 -0.059113562 0.43059698 16711680
-0.057425015 -0.059353054 0.43034679 16711680
-0.062132999 -0.059512198 0.43017972 16711680
-0.066933677 -0.059353054 0.43034679 16711680
-0.072290793 -0.059393227 0.43050539 16711680
-0.077632383 -0.059452027 0.43002194 16711680
-0.082567036 -0.059991181 0.4296793 16711680
-0.087453499 -0.05959177 0.43009618 16711680
-0.092232898 -0.059512198 0.43017972 16711680
-0.097246304 -0.059803873 0.43009564 16711680
-0.10244551 -0.05973649 0.42994669 16711680
-0.1079524 -0.058878034 0.43062273 16711680
-0.11271088 -0.05985859 0.43114418 16711680
-0.1182418 -0.059925467 0.43140623 16711680
-0.12213233 -0.06010446 0.4312183 16711680
-0.12736419 -0.060275704 0.43159243 16711680
-0.13253039 -0.059777588 0.43116587 16711680
-0.13777898 -0.059987098 0.43063 16711680
-0.14257279 -0.05945161 0.4300217 16711680
-0.14751504 -0.059786946 0.43052357 16711680
-0.15263045 -0.059813976 0.43096945 16711680
-0.15781312 -0.06010446 0.4312183 16711680
-0.16208218 -0.059933335 0.43084416 16711680
-0.16726337 -0.060084552 0.43084359 16711680
-0.1727531 -0.059782118 0.43084463 16711680
-0.17793427 -0.059933335 0.4308441 16711680
-0.18268991 -0.059933335 0.43084416 16711680
-0.18716991 -0.06000182 0.4309938 16711680
-0.19241077 -0.060275704 0.43159243 16711680
-0.19764134 -0.060812771 0.43102857 16711680
-0.20210841 -0.059933335 0.4308441 16711680
-0.2078225 -0.059675336 0.43127319 16711680
-0.21271801 -0.05971536 0.4312945 16711680
-0.21779484 -0.060275704 0.43159243 16711680
-0.22255433 -0.059925467 0.4314062 16711680
-0.22731385 -0.060275704 0.43159243 16711680
0.20067254 -0.06426245 0.43182462 16711680
0.19731636 -0.064894497 0.43115398 16711680
0.19350964 -0.065397263 0.43006849 16711680
0.15365863 -0.064531982 0.42932525 16711680
0.11031404 -0.064531982 0.42932525 16711680
0.1071617 -0.064531982 0.42932525 16711680
0.102142 -0.064803064 0.42992246 16711680
0.097723007 -0.064989835 0.42994627 16711680
0.09299913 -0.064870834 0.43007174 16711680
0.087478027 -0.064870834 0.43007174 16711680
0.081956923 -0.064870834 0.43007174 16711680
0.077224545 -0.064870834 0.43007174 16711680
0.072491199 -0.065606594 0.4304001 16711680
0.067761838 -0.065289855 0.43073496 16711680
0.063253641 -0.065322042 0.43006897 16711680
0.057512444 -0.064531982 0.42932525 16711680
0.051675849 -0.064945817 0.4297719 16711680
0.047059439 -0.065481961 0.43025514 16711680
0.042518117 -0.065527529 0.43048382 16711680
0.037790842 -0.065606594 0.43040007 16711680
0.033064421 -0.065685689 0.43031627 16711680
0.027868751 -0.065502524 0.4300679 16711680
0.021813095 -0.065424025 0.42996141 16711680
0.017487902 -0.065481961 0.43025514 16711680
0.012533844 -0.065448165 0.43056756 16711680
0.0077591166 -0.065131664 0.43090257 16711680
0.0029650815 -0.06473583 0.43132126 16711680
-0.0021944344 -0.064211488 0.43209955 16711680
-0.0076914281 -0.063595533 0.43232802 16711680
-0.012965769 -0.064024776 0.43207577 16711680
-0.017625503 -0.064498872 0.43157285 16711680
-0.022289902 -0.064894736 0.43115413 16711680
-0.026979424 -0.065131724 0.43090251 16711680
-0.032078557 -0.065065861 0.43119475 16711680
-0.037493087 -0.064072788 0.43202579 16711680
-0.042856455 -0.063363492 0.43255463 16711680
-0.047813781 -0.063946456 0.43215993 16711680
-0.052392684 -0.064578474 0.43148929 16711680
-0.057003327 -0.065053403 0.43098673 16711680
-0.062536731 -0.065033555 0.43100771 16711680
-0.067895129 -0.065119147 0.43119475 16711680
-0.072632104 -0.064430833 0.43142331 16711680
-0.077430919 -0.065369666 0.43065158 16711680
-0.081901461 -0.065393001 0.43034938 16711680
-0.087343022 -0.065606594 0.4304001 16711680
-0.092555135 -0.065472811 0.43034041 16711680
-0.097947493 -0.065369666 0.43065158 16711680
-0.10277383 -0.065132707 0.43090305 16711680
-0.10791871 -0.064104348 0.43199223 16711680
-0.11269896 -0.064025313 0.43207607 16711680
-0.1173152 -0.064341068 0.43174049 16711680
-0.12221794 -0.064851969 0.43142083 16711680
-0.12752751 -0.06449908 0.43157294 16711680
-0.13271327 -0.064430147 0.43142301 16711680
-0.13715363 -0.065303802 0.43044353 16711680
-0.14194103 -0.064945847 0.4297719 16711680
-0.14720018 -0.065021247 0.43007088 16711680
-0.15269712 -0.065289646 0.43073484 16711680
-0.15779176 -0.064857155 0.43097052 16711680
-0.16273557 -0.065210551 0.43081865 16711680
-0.16747183 -0.065210521 0.43081871 16711680
-0.1724845 -0.065421015 0.43081734 16711680
-0.17709218 -0.065125912 0.43063205 16711680
-0.18236476 -0.065144092 0.43109217 16711680
-0.18778992 -0.064657062 0.43140528 16711680
-0.19248447 -0.06473586 0.43132126 16711680
-0.19728017 -0.064857155 0.43097052 16711680
-0.2023015 -0.06505242 0.43098626 16711680
-0.20723727 -0.064736128 0.43132141 16711680
-0.21218026 -0.064420134 0.43165681 16711680
-0.2171807 -0.064025313 0.43207607 16711680
-0.22208658 -0.063788354 0.43232754 16711680
-0.22699645 -0.063550949 0.43257883 16711680
-0.2321001 -0.063643396 0.43270352 16711680
-0.23704419 -0.063518375 0.43289182 16711680
-0.24266052 -0.063361257 0.43277994 16711680
-0.24601382 -0.063550919 0.4325788 16711680
0.20026632 -0.069049299 0.43229344 16711680
0.19700322 -0.068706989 0.43154514 16711680
0.069333695 -0.068706989 0.43154514 16711680
0.011015523 -0.068706989 0.43154514 16711680
0.00786319 -0.068706989 0.43154514 16711680
0.0031346902 -0.068706989 0.43154514 16711680
-0.002423808 -0.069137663 0.43219891 16711680
-0.007938318 -0.069862962 0.43253738 16711680
-0.012683257 -0.069784641 0.4326216 16711680
-0.017400056 -0.069167137 0.43216738 16711680
-0.022083975 -0.068706989 0.43154514 16711680
-0.027863264 -0.068706989 0.43154514 16711680
-0.033465065 -0.069122195 0.43199253 16711680
-0.037977643 -0.069549739 0.43287417 16711680
-0.042809293 -0.069158196 0.43329522 16711680
-0.047466293 -0.069471449 0.43295836 16711680
-0.052116133 -0.069784641 0.43262157 16711680
-0.057252221 -0.069749594 0.43221286 16711680
-0.063133866 -0.069167137 0.43216738 16711680
-0.068080559 -0.069499016 0.4322899 16711680
-0.072571129 -0.069941491 0.4324533 16711680
-0.077249825 -0.069402754 0.43191516 16711680
-0.080402166 -0.068706989 0.43154514 16711680
-0.094587654 -0.068706989 0.43154514 16711680
-0.098055229 -0.069263637 0.43184111 16711680
-0.10273448 -0.069747925 0.43238181 16711680
-0.10735354 -0.06970638 0.43270573 16711680
-0.11182465 -0.069398016 0.43239805 16711680
-0.11755377 -0.069137663 0.43219891 16711680
-0.12306182 -0.069167167 0.43216738 16711680
-0.12737146 -0.068878144 0.43191931 16711680
-0.13162759 -0.068707019 0.43154514 16711680
-0.17260793 -0.068707019 0.43154514 16711680
-0.17843975 -0.069263667 0.43184111 16711680
-0.18285301 -0.069402784 0.43191516 16711680
-0.18758148 -0.069402814 0.43191519 16711680
-0.19191596 -0.069054931 0.43173012 16711680
-0.19546235 -0.068707019 0.43154514 16711680
-0.20334315 -0.068707019 0.43154514 16711680
-0.20807168 -0.069402814 0.43191519 16711680
-0.21300286 -0.069784671 0.43262157 16711680
-0.21783745 -0.06962809 0.43278995 16711680
-0.22267607 -0.069470972 0.4329581 16711680
-0.22735769 -0.069549531 0.43287402 16711680
-0.23232123 -0.069814295 0.4328135 16711680
-0.23746225 -0.069392353 0.43304223 16711680
-0.24256286 -0.069252044 0.43319407 16711680
-0.24533769 -0.067292899 0.43305847 16711680
-0.038633734 -0.072881997 0.43376502 16711680
-0.042889379 -0.073438674 0.43406102 16711680
-0.046908617 -0.073229909 0.43395004 16711680
-0.051243074 -0.072881997 0.43376502 16711680
-0.10404466 -0.072881997 0.43376502 16711680
-0.10719702 -0.072882026 0.43376502 16711680
-0.11034934 -0.072882026 0.43376502 16711680
-0.21831676 -0.072882026 0.43376502 16711680
-0.2222572 -0.072882026 0.43376502 16711680
-0.22698566 -0.072882026 0.43376502 16711680
-0.23250225 -0.072882026 0.43376502 16711680
-0.23644269 -0.072882026 0.43376502 16711680
-0.24314138 -0.073229939 0.43395004 16711680
0.39632201 -0.080316633 0.43922827 16711680
0.39238492 -0.078586459 0.44000718 16711680
0.3874594 -0.078815341 0.4397513 16711680
0.38253862 -0.079044938 0.43949586 16711680
0.37822002 -0.078239411 0.44001132 16711680
0.37267351 -0.079172462 0.4405075 16711680
0.39560026 -0.08262369 0.43894479 16711680
0.39244792 -0.08262369 0.43894479 16711680
0.38771942 -0.08262369 0.43894479 16711680
0.38456708 -0.08262369 0.43894479 16711680
0.37708029 -0.081927836 0.43857482 16711680
0.37038159 -0.08401534 0.43968475 16711680
0.36722067 -0.082935601 0.4409039 16711680
0.36445159 -0.081287593 0.44276467 16711680
0.36655796 -0.087240607 0.4427588 16711680
0.36428902 -0.085714221 0.44474089 16711680
0.3658492 -0.091540486 0.444139 16711680
0.36440027 -0.090907156 0.44629389 16711680
0.36565307 -0.095844567 0.44597447 16711680
0.36422244 -0.095522672 0.44823024 16711680
0.36410165 -0.10032448 0.4502441 16711680
0.36505753 -0.10568935 0.45347425 16711680
0.36452866 -0.10313037 0.45211354 16711680
0.36505753 -0.10917994 0.45533022 16711680
0.36505753 -0.11197239 0.456815 16711680
0.36449781 -0.11314204 0.45834291 16711680
