# .PCD v0.7 - Point Cloud Data file format
VERSION 0.7
FIELDS x y z rgba
SIZE 4 4 4 4
TYPE F F F U
COUNT 1 1 1 1
WIDTH 1176
HEIGHT 1
VIEWPOINT 0 0 0 1 0 0 0
POINTS 1176
DATA ascii
-0.037443802 -0.27182674 0.46261901 65280
-0.032585833 -0.27150443 0.46345115 65280
-0.027757432 -0.27217934 0.46460232 65280
-0.022868436 -0.27181146 0.46536434 65280
-0.017675349 -0.2714895 0.46564877 65280
-0.012348191 -0.27144274 0.46612662 65280
-0.0095371306 -0.27144274 0.46612662 65280
-0.096283801 -0.26914564 0.46706489 65280
-0.092403159 -0.26767731 0.46629918 65280
-0.087688319 -0.26663896 0.46481127 65280
-0.083561659 -0.2669647 0.46397734 65280
-0.076431148 -0.26819649 0.46332237 65280
-0.070850745 -0.26819649 0.46332237 65280
-0.067502506 -0.26795015 0.46345338 65280
-0.063177697 -0.26819649 0.46332237 65280
-0.037368353 -0.26819649 0.46332237 65280
-0.032203157 -0.26781183 0.46385056 65280
-0.027636612 -0.26791441 0.46422741 65280
-0.022762269 -0.2674652 0.46484372 65280
-0.017029274 -0.26693895 0.4650481 65280
-0.012292393 -0.26713929 0.46567783 65280
-0.0075472607 -0.26748762 0.46656853 65280
-0.003352796 -0.26747149 0.46823815 65280
-0.091591291 -0.26350611 0.46921405 65280
-0.087775312 -0.26258144 0.46756634 65280
-0.084801756 -0.26203749 0.4665972 65280
-0.015395529 -0.26172954 0.46676093 65280
-0.012268702 -0.2623091 0.46708199 65280
-0.0074013933 -0.263098 0.46848732 65280
-0.0029089826 -0.26385641 0.46983677 65280
0.05722557 -0.26275566 0.47074562 65280
0.061442163 -0.26275566 0.47074562 65280
-0.091057897 -0.26151466 0.47140548 65280
-0.087471396 -0.25936025 0.47041172 65280
-0.082734011 -0.2580623 0.46974894 65280
-0.077714525 -0.25668767 0.47038555 65280
-0.072245844 -0.25587851 0.469872 65280
-0.057649825 -0.25611764 0.47031114 65280
-0.052114125 -0.25635678 0.47075021 65280
-0.047134053 -0.25587851 0.469872 65280
-0.031090401 -0.25587851 0.469872 65280
-0.02761898 -0.25603795 0.47016478 65280
-0.022477569 -0.25729483 0.47013816 65280
-0.017395446 -0.25884885 0.4703151 65280
-0.012508963 -0.25979778 0.47037679 65280
-0.0084747877 -0.26096183 0.47113317 65280
0.053711746 -0.25903264 0.47272518 65280
0.057171665 -0.259413 0.4719567 65280
0.062716193 -0.25911304 0.47140825 65280
0.067502588 -0.25896049 0.47152805 65280
0.072551556 -0.25855359 0.47184736 65280
0.077461787 -0.25855356 0.4718473 65280
0.082256205 -0.25819317 0.47118959 65280
0.087416559 -0.25799748 0.4711237 65280
0.09194044 -0.2583361 0.47228661 65280
0.096580423 -0.25779164 0.47338504 65280
0.10820553 -0.2579442 0.47307745 65280
0.1127622 -0.25851822 0.47214928 65280
0.11757232 -0.25883317 0.47235939 65280
0.12225667 -0.25819239 0.47294548 65280
-0.076908231 -0.25623333 0.47345865 65280
-0.072316363 -0.25538784 0.47307757 65280
-0.067568749 -0.25480109 0.4722853 65280
-0.062295828 -0.25482351 0.47253633 65280
-0.057602592 -0.25547475 0.47332257 65280
-0.051840942 -0.25566095 0.47338539 65280
-0.047340486 -0.25513759 0.47290859 65280
-0.042383909 -0.25420204 0.47265092 65280
-0.037484765 -0.25420228 0.4726508 65280
-0.032616198 -0.25443929 0.47309116 65280
-0.027730769 -0.2552169 0.47305518 65280
-0.023284024 -0.25601682 0.4736492 65280
0.05772353 -0.2553741 0.47416714 65280
0.062603794 -0.25432277 0.4728699 65280
0.067389868 -0.25388858 0.47206259 65280
0.072236888 -0.25373143 0.47176859 65280
0.077799588 -0.25365248 0.47162181 65280
0.082392469 -0.25434437 0.47114074 65280
0.087534949 -0.25476569 0.47074679 65280
0.092699304 -0.25410652 0.47162315 65280
0.097399548 -0.25416541 0.47284207 65280
0.10245237 -0.25500882 0.47384548 65280
0.10740694 -0.25432399 0.47286943 65280
0.11266256 -0.25386336 0.47228196 65280
0.11753733 -0.25424975 0.47243685 65280
0.12245448 -0.25433451 0.47318462 65280
0.12747505 -0.25496197 0.47438627 65280
0.132717 -0.25439844 0.47470388 65280
0.13749528 -0.25450838 0.47448361 65280
0.14259794 -0.25410903 0.47345549 65280
0.14743191 -0.25453699 0.47326222 65280
0.15244696 -0.25440925 0.47376773 65280
0.15732336 -0.25437644 0.47474796 65280
0.16123483 -0.25406858 0.4753646 65280
0.059333865 -0.25282758 0.47602448 65280
0.063097939 -0.25079736 0.47588432 65280
0.067388989 -0.24956845 0.47435963 65280
0.071565695 -0.24930887 0.47336504 65280
0.098482825 -0.25028649 0.47322288 65280
0.1029369 -0.24935393 0.47360241 65280
0.10734592 -0.25020173 0.47339377 65280
0.11213985 -0.2505407 0.47271013 65280
0.11748773 -0.25095129 0.47249183 65280
0.12276489 -0.25019994 0.47345763 65280
0.12751132 -0.24960984 0.47443202 65280
0.13256851 -0.24992049 0.47502196 65280
0.13758202 -0.24940436 0.47404248 65280
0.14203395 -0.25077525 0.47315174 65280
0.1474824 -0.25095129 0.47249183 65280
0.15272763 -0.25033915 0.47346449 65280
0.1575015 -0.24960229 0.47471914 65280
0.1629183 -0.25078788 0.47632492 65280
0.16671641 -0.25009736 0.47747615 65280
0.064955987 -0.24786355 0.47866389 65280
0.067870572 -0.2467238 0.47768432 65280
0.072370224 -0.24555339 0.47724962 65280
0.077334344 -0.24419874 0.47664854 65280
0.081215136 -0.24356049 0.47642159 65280
0.13213629 -0.2460241 0.47511166 65280
0.15855914 -0.24543247 0.47599256 65280
0.16267055 -0.2456065 0.47734717 65280
0.16735362 -0.24631801 0.47873062 65280
0.17037077 -0.24600203 0.47965369 65280
0.074022561 -0.24391405 0.48019764 65280
0.078113511 -0.24312294 0.47967449 65280
0.08271113 -0.24198328 0.47914773 65280
0.087569825 -0.24070813 0.47959352 65280
0.092250638 -0.23970434 0.47895736 65280
0.096853487 -0.23919258 0.47912154 65280
0.15934072 -0.2423287 0.47707653 65280
0.16257651 -0.2411606 0.47820103 65280
0.16696475 -0.24141853 0.47992003 65280
0.1719787 -0.24177265 0.48146695 65280
0.088850006 -0.23917648 0.48328289 65280
0.092760757 -0.23806831 0.48302269 65280
0.097834371 -0.23672841 0.48240039 65280
0.10240659 -0.2354804 0.48154154 65280
0.10572745 -0.23392454 0.48211142 65280
0.16287942 -0.23501071 0.48115632 65280
0.16737445 -0.23638161 0.48205081 65280
0.17281851 -0.23696876 0.48393407 65280
0.10307082 -0.2334553 0.48564538 65280
0.10723197 -0.23199309 0.4848372 65280
0.11273595 -0.23089561 0.4838635 65280
0.11761949 -0.23076141 0.48390657 65280
0.12248495 -0.23084158 0.48375067 65280
0.12753181 -0.23112893 0.48435286 65280
0.13230506 -0.23198131 0.48422578 65280
0.13720296 -0.23258208 0.48484764 65280
0.14243245 -0.23272401 0.48444861 65280
0.14769371 -0.23275043 0.48427278 65280
0.15233055 -0.23232615 0.48385116 65280
0.15761788 -0.23217738 0.48463634 65280
0.16240409 -0.23229672 0.48517907 65280
0.1673529 -0.23330224 0.48565122 65280
0.1713459 -0.23379356 0.48586193 65280
0.10923021 -0.2304894 0.4879019 65280
0.11285728 -0.22965088 0.48744169 65280
0.11730848 -0.22917515 0.48676026 65280
0.1226583 -0.22934729 0.48689115 65280
0.12731449 -0.2299075 0.48798484 65280
0.13101593 -0.2304894 0.4879019 65280
0.13880901 -0.20458902 0.50091833 65280
0.14142609 -0.20485908 0.50096351 65280
0.16023423 -0.20404893 0.50082797 65280
0.1844261 -0.20566921 0.50109899 65280
0.18743947 -0.20474336 0.5009442 65280
0.19230434 -0.2049748 0.50098288 65280
0.19759516 -0.20485908 0.50096351 65280
0.20250995 -0.20485908 0.50096351 65280
0.20742474 -0.20485908 0.50096351 65280
0.21271221 -0.20474333 0.50094414 65280
0.21777721 -0.20532034 0.50065529 65280
0.22243501 -0.2051418 0.50014395 65280
0.22724758 -0.2054161 0.50047857 65280
0.23099077 -0.20458902 0.50091833 65280
-0.19506717 -0.20070517 0.50373846 65280
-0.1925372 -0.20120159 0.50347447 65280
-0.18733674 -0.20070517 0.50373846 65280
-0.18241739 -0.20070517 0.50373846 65280
-0.1782008 -0.20070517 0.50373846 65280
-0.15782061 -0.20070517 0.50373846 65280
-0.15219848 -0.20070517 0.50373846 65280
-0.086138546 -0.20070517 0.50373846 65280
-0.082624726 -0.20070517 0.50373846 65280
-0.079813659 -0.20070517 0.50373846 65280
-0.071380474 -0.20070517 0.50373846 65280
-0.067804992 -0.20051901 0.50327122 65280
-0.062186785 -0.20113951 0.50294125 65280
-0.057271998 -0.20113948 0.50294119 65280
-0.052664768 -0.20107746 0.50305516 65280
-0.047486454 -0.20070517 0.50373846 65280
-0.042567097 -0.20070517 0.50373846 65280
-0.037339218 -0.20105264 0.50310069 65280
-0.032705124 -0.20118606 0.50305808 65280
-0.028160412 -0.20101543 0.50357348 65280
-0.022889672 -0.20070517 0.50373846 65280
-0.01678923 -0.20099473 0.50320697 65280
-0.012336737 -0.20113951 0.50294125 65280
-0.0077235545 -0.20107746 0.50305516 65280
-0.0032122429 -0.20070517 0.50373846 65280
0.012951358 -0.20070517 0.50373846 65280
0.018124254 -0.20139964 0.50246316 65280
0.022852264 -0.20181969 0.50139552 65280
0.027635772 -0.20202924 0.50140637 65280
0.032578338 -0.2022554 0.50197035 65280
0.037502352 -0.20169739 0.50245589 65280
0.042232942 -0.20143203 0.50286663 65280
0.047335248 -0.20172839 0.50253379 65280
0.052241519 -0.2016972 0.50245601 65280
0.056966461 -0.2015962 0.50254399 65280
0.063011415 -0.2013249 0.5022763 65280
0.067627639 -0.2015314 0.50204068 65280
0.072551548 -0.20157304 0.50214446 65280
0.07734073 -0.20155802 0.50257713 65280
0.08218094 -0.20113064 0.50318867 65280
0.087444484 -0.20070517 0.50373846 65280
0.093041562 -0.2013611 0.50322789 65280
0.097481385 -0.20197409 0.5022797 65280
0.10249355 -0.20197934 0.50213432 65280
0.10775512 -0.20170622 0.50189942 65280
0.1124364 -0.20189577 0.50219935 65280
0.11755423 -0.20113951 0.50294125 65280
0.12268035 -0.20152374 0.50239718 65280
0.12748103 -0.20205888 0.50148165 65280
0.13257194 -0.20181924 0.50125855 65280
0.13721766 -0.20175134 0.50122589 65280
0.14248691 -0.20138884 0.50110984 65280
0.14741321 -0.20236471 0.50181061 65280
0.15256368 -0.20194378 0.50156975 65280
0.15779307 -0.20181921 0.50125849 65280
0.16288856 -0.20200582 0.50134802 65280
0.16726333 -0.20154977 0.50174499 65280
0.1725858 -0.20210737 0.5020346 65280
0.1775168 -0.20206955 0.50204217 65280
0.18242411 -0.20215985 0.50160593 65280
0.1872426 -0.20110549 0.50064266 65280
0.19260441 -0.20094784 0.50058925 65280
0.19769225 -0.20073737 0.5004369 65280
0.20263113 -0.20110554 0.50064272 65280
0.20771095 -0.20096198 0.50099707 65280
0.21267477 -0.20134479 0.50123626 65280
0.2177781 -0.20094764 0.50058937 65280
0.22281601 -0.20050646 0.49982864 65280
0.22784717 -0.20094647 0.50021237 65280
0.23270996 -0.20140873 0.50098598 65280
0.23720409 -0.20182087 0.50182396 65280
0.24253711 -0.20171964 0.50216943 65280
0.24744956 -0.2014118 0.50211692 65280
0.25072211 -0.20157266 0.50214463 65280
-0.2850211 -0.19574115 0.50637788 65280
-0.28221005 -0.19574115 0.50637788 65280
-0.2772907 -0.19574115 0.50637788 65280
-0.27237135 -0.19636165 0.50604796 65280
-0.26753995 -0.19629465 0.50559819 65280
-0.26247227 -0.19660313 0.50512677 65280
-0.25743595 -0.19741498 0.50435531 65280
-0.2525636 -0.19637223 0.50449789 65280
-0.24767284 -0.19663782 0.50518042 65280
-0.24233486 -0.19653569 0.50553066 65280
-0.23729387 -0.19667625 0.50531441 65280
-0.23266789 -0.1966826 0.50537395 65280
-0.22815228 -0.19591673 0.50605804 65280
-0.22247501 -0.19574115 0.50637788 65280
-0.21755564 -0.19574115 0.50637788 65280
-0.21263629 -0.19574115 0.50637788 65280
-0.20736556 -0.19605139 0.50621289 65280
-0.20226701 -0.19609426 0.50600135 65280
-0.19729513 -0.19723493 0.5049659 65280
-0.19252388 -0.19715922 0.50424868 65280
-0.18751509 -0.19705595 0.50397998 65280
-0.18241361 -0.19687039 0.50388992 65280
-0.17720866 -0.19712718 0.50361848 65280
-0.17245236 -0.19682647 0.50394017 65280
-0.16753696 -0.19728479 0.50402004 65280
-0.16255793 -0.19672155 0.50367242 65280
-0.15742983 -0.1969175 0.50308275 65280
-0.15261127 -0.19653799 0.50320369 65280
-0.14768161 -0.19689459 0.5039525 65280
-0.14248919 -0.19670586 0.50461912 65280
-0.13767192 -0.19647232 0.50475359 65280
-0.13244309 -0.19692379 0.50451356 65280
-0.12761249 -0.19682646 0.50394022 65280
-0.12258099 -0.19675282 0.50453317 65280
-0.11765373 -0.19618008 0.50557822 65280
-0.11284362 -0.19574115 0.50637788 65280
-0.10679984 -0.19598934 0.50624591 65280
-0.10217605 -0.19611917 0.50542188 65280
-0.097640663 -0.1967787 0.50480682 65280
-0.092593946 -0.19685242 0.50400734 65280
-0.08760079 -0.19723208 0.50388634 65280
-0.082662739 -0.19656394 0.50327086 65280
-0.0774258 -0.1968953 0.5035699 65280
-0.072515704 -0.19687212 0.50351137 65280
-0.067536943 -0.19664247 0.50292563 65280
-0.062596932 -0.19650456 0.50257427 65280
-0.057691824 -0.19645883 0.5024569 65280
-0.052246813 -0.19660358 0.50244617 65280
-0.047477249 -0.19653226 0.50308222 65280
-0.042389404 -0.19677982 0.50327736 65280
-0.037450273 -0.196566 0.50273031 65280
-0.03255704 -0.19657376 0.50274974 65280
-0.027692944 -0.19677979 0.5032773 65280
-0.022806983 -0.19689444 0.50357038 65280
-0.017184433 -0.19664216 0.50292575 65280
-0.012279465 -0.19650452 0.50257421 65280
-0.0073941797 -0.19671071 0.50310177 65280
-0.0025045581 -0.19726822 0.50452775 65280
0.0024076437 -0.19680019 0.50524855 65280
0.0074444129 -0.19710223 0.50462455 65280
0.012203341 -0.19689503 0.50357008 65280
0.017320022 -0.19705401 0.50207615 65280
0.022358313 -0.1976392 0.50129139 65280
0.028040458 -0.19730656 0.50129843 65280
0.032437526 -0.19644329 0.50241816 65280
0.037369873 -0.19666429 0.50298482 65280
0.042445559 -0.19636236 0.50264984 65280
0.047283776 -0.1969316 0.50234717 65280
0.052713934 -0.19650458 0.50257427 65280
0.057588223 -0.19644362 0.5024178 65280
0.062085506 -0.19672315 0.50210953 65280
0.067327 -0.19755304 0.50145048 65280
0.072398894 -0.19703209 0.50167596 65280
0.077631868 -0.1963996 0.50230658 65280
0.08262109 -0.1968167 0.50293094 65280
0.08753188 -0.19672123 0.5036726 65280
0.0923324 -0.19707429 0.50348479 65280
0.097288415 -0.19660328 0.50244635 65280
0.10262205 -0.19743863 0.50143045 65280
0.10743774 -0.19766745 0.50147057 65280
0.11257074 -0.19693665 0.50177813 65280
0.11760872 -0.19684371 0.50248826 65280
0.12240244 -0.19687465 0.50220317 65280
0.12737237 -0.19755304 0.50145048 65280
0.13225977 -0.19755304 0.50145048 65280
0.13759629 -0.19674101 0.5016247 65280
0.1424266 -0.19702332 0.50161892 65280
0.14759758 -0.19690613 0.50170016 65280
0.15255508 -0.19699804 0.50193429 65280
0.15729155 -0.19699869 0.50159085 65280
0.16294213 -0.19719884 0.50149727 65280
0.16762014 -0.19709687 0.50180626 65280
0.17236841 -0.19685027 0.50193739 65280
0.17721003 -0.19713239 0.50193155 65280
0.18274388 -0.1973272 0.50150764 65280
0.18719342 -0.19726266 0.50152397 65280
0.19212559 -0.197368 0.50098258 65280
0.19770598 -0.19798389 0.50065511 65280
0.20293759 -0.19767594 0.50081885 65280
0.20766556 -0.19755304 0.50145048 65280
0.21255298 -0.19755304 0.50145048 65280
0.21681884 -0.19773753 0.50078607 65280
0.22072512 -0.19798389 0.50065511 65280
0.22839817 -0.19798389 0.50065511 65280
0.2323468 -0.19733289 0.50116307 65280
0.23732062 -0.19766745 0.50147057 65280
0.24257568 -0.19755304 0.50145048 65280
0.24769576 -0.19731519 0.50165784 65280
0.25048953 -0.19773692 0.50191897 65280
-0.30610406 -0.19263861 0.50802749 65280
-0.30301192 -0.19226632 0.50822544 65280
-0.29757926 -0.19257921 0.50787032 65280
-0.29234451 -0.19268109 0.50715548 65280
-0.28747171 -0.19270657 0.50663227 65280
-0.28243524 -0.19291623 0.50643843 65280
-0.27729386 -0.19245538 0.5059731 65280
-0.27253121 -0.19270317 0.50584143 65280
-0.26748803 -0.19230027 0.50553048 65280
-0.26229134 -0.19173816 0.50519574 65280
-0.25733712 -0.19138862 0.5047282 65280
-0.25230968 -0.19175851 0.5045315 65280
-0.24787045 -0.19164336 0.50500792 65280
-0.2425036 -0.19242325 0.50549936 65280
-0.23725942 -0.19200951 0.50519085 65280
-0.23258682 -0.19171527 0.50519627 65280
-0.22747983 -0.19172917 0.50549084 65280
-0.22274451 -0.19210933 0.50573492 65280
-0.21748196 -0.19257323 0.50589156 65280
-0.21238586 -0.19277437 0.50602996 65280
-0.20741989 -0.19239847 0.50578707 65280
-0.2025024 -0.1927031 0.50584131 65280
-0.19745268 -0.19223486 0.50535929 65280
-0.19252408 -0.19150804 0.50504225 65280
-0.18751669 -0.19138888 0.50472802 65280
-0.18248001 -0.19159971 0.5048337 65280
-0.17765851 -0.19160715 0.50432879 65280
-0.1725426 -0.19209242 0.50424069 65280
-0.16770512 -0.19181132 0.50424594 65280
-0.16230625 -0.19253103 0.50383765 65280
-0.15734695 -0.1930567 0.50327492 65280
-0.15246409 -0.1930567 0.50327492 65280
-0.14685294 -0.19295467 0.50378221 65280
-0.14251319 -0.19250745 0.50405234 65280
-0.13724613 -0.19262123 0.50407279 65280
-0.13235873 -0.19262123 0.50407279 65280
-0.12747131 -0.19262123 0.50407279 65280
-0.12211633 -0.19255719 0.50438994 65280
-0.11741287 -0.19168283 0.5050509 65280
-0.11248067 -0.19190711 0.50569832 65280
-0.10777246 -0.19174802 0.50566971 65280
-0.10243197 -0.19183253 0.50505847 65280
-0.097466834 -0.1917944 0.50462568 65280
-0.092759795 -0.19213328 0.50438362 65280
-0.087673806 -0.19262123 0.50407279 65280
-0.083200552 -0.19270626 0.50365001 65280
-0.077128701 -0.1930567 0.50327492 65280
-0.072245844 -0.1930567 0.50327492 65280
-0.069455653 -0.1930567 0.50327492 65280
-0.04573895 -0.1930567 0.50327492 65280
-0.042251199 -0.1930567 0.50327492 65280
-0.038763452 -0.1930567 0.50327492 65280
-0.031090401 -0.1930567 0.50327492 65280
-0.027333429 -0.19263616 0.50372505 65280
-0.022736218 -0.19257611 0.50395513 65280
-0.017836953 -0.1930567 0.50327492 65280
-0.013651653 -0.1930567 0.50327492 65280
-0.0069103162 -0.19270626 0.50365001 65280
-0.0023545476 -0.19186608 0.50481409 65280
0.0022569436 -0.19173932 0.50525904 65280
0.0071086287 -0.19220385 0.50443625 65280
0.010536349 -0.1927664 0.50380689 65280
0.033084191 -0.1930567 0.50327492 65280
0.037269495 -0.1930567 0.50327492 65280
0.040757239 -0.1930567 0.50327492 65280
0.084005341 -0.1930567 0.50327492 65280
0.0880135 -0.19276641 0.50380683 65280
0.092069678 -0.19283898 0.50367391 65280
0.095863685 -0.1930567 0.50327492 65280
-0.30553615 -0.19042315 0.50807297 65280
-0.30253944 -0.18797603 0.507864 65280
-0.29758072 -0.18825155 0.50774658 65280
-0.29261601 -0.18798324 0.50682205 65280
-0.28769222 -0.18821803 0.5065273 65280
-0.28247169 -0.18830609 0.50636721 65280
-0.27719426 -0.18849802 0.50652248 65280
-0.27217653 -0.1881125 0.50624359 65280
-0.26753035 -0.18842943 0.50630158 65280
-0.26314199 -0.1877189 0.50611311 65280
-0.25918925 -0.18812948 0.50589478 65280
-0.24639915 -0.18852592 0.50596708 65280
-0.24230763 -0.18903565 0.50606018 65280
-0.23771322 -0.1886581 0.50599128 65280
-0.23337989 -0.18812948 0.50589478 65280
-0.22570683 -0.18812948 0.50589478 65280
-0.22185118 -0.18857017 0.50608516 65280
-0.21760708 -0.18836468 0.50652474 65280
-0.21275142 -0.18815714 0.50657713 65280
-0.20758948 -0.1887684 0.5061214 65280
-0.20255053 -0.1888091 0.50601882 65280
-0.19729148 -0.18892238 0.5060395 65280
-0.19361953 -0.18812948 0.50589478 65280
-0.18385383 -0.18812948 0.50589478 65280
-0.30243734 -0.1844341 0.50785965 65280
-0.29894957 -0.1844341 0.50785965 65280
-0.30603856 -0.29998982 0.45222199 65280
-0.30634522 -0.29593375 0.45499209 65280
-0.30242875 -0.29672343 0.45681521 65280
-0.30674651 -0.29195878 0.45790792 65280
-0.30382165 -0.29255101 0.45905587 65280
-0.30708781 -0.28800327 0.46185154 65280
-0.30402836 -0.28964815 0.46173191 65280
-0.10608829 -0.2827284 0.46578875 65280
-0.10238413 -0.28292158 0.46474224 65280
-0.097394228 -0.28271961 0.46365416 65280
-0.092493892 -0.28314734 0.46350685 65280
-0.087670982 -0.28302318 0.46381989 65280
-0.082479246 -0.28328723 0.4639816 65280
-0.077679284 -0.28304362 0.46392232 65280
-0.073134311 -0.28279945 0.46499598 65280
-0.067786925 -0.2827284 0.46578875 65280
-0.06241972 -0.28281972 0.46476948 65280
-0.057254381 -0.28334492 0.46407667 65280
-0.053056292 -0.28252208 0.46428055 65280
-0.047172975 -0.28246853 0.46536064 65280
-0.042175014 -0.28220868 0.46493256 65280
-0.037219152 -0.28220868 0.46493256 65280
-0.032302029 -0.28255516 0.46550336 65280
-0.027357712 -0.2827284 0.46578875 65280
-0.10768654 -0.27885047 0.46483046 65280
-0.10249195 -0.27940619 0.46302494 65280
-0.098971598 -0.27940619 0.46302494 65280
-0.087706491 -0.27940619 0.46302494 65280
-0.082778014 -0.27940619 0.46302494 65280
-0.077884592 -0.27953556 0.46323934 65280
-0.072029114 -0.27931684 0.46404323 65280
-0.067475401 -0.27955952 0.46464226 65280
-0.062432669 -0.2791079 0.46389133 65280
-0.057810798 -0.27922469 0.46340454 65280
-0.052503042 -0.27940619 0.46302494 65280
-0.047662657 -0.27992362 0.46388236 65280
-0.042725045 -0.27992362 0.46388236 65280
-0.037069988 -0.27942291 0.46395978 65280
-0.03229402 -0.27876043 0.46437502 65280
-0.027234886 -0.27834696 0.46535775 65280
-0.022327328 -0.27878594 0.46609184 65280
-0.017553544 -0.27857322 0.46669126 65280
-0.012230632 -0.27795559 0.46687034 65280
-0.0074858274 -0.27854466 0.46706963 65280
-0.0028844192 -0.27777621 0.46785566 65280
-0.10694855 -0.27475411 0.46844319 65280
-0.10338843 -0.27244991 0.4678562 65280
-0.025044344 -0.27443293 0.46566927 65280
-0.022228068 -0.27443293 0.46566927 65280
-0.017011011 -0.27411789 0.46632215 65280
-0.012382556 -0.27406538 0.46643093 65280
-0.0072619426 -0.2737636 0.46705467 65280
-0.0025236106 -0.27431464 0.46824899 65280
0.00065888342 -0.27477425 0.46973494 65280
0.02087363 -0.27396074 0.47045061 65280
-0.10159859 -0.27145588 0.47036672 65280
-0.09769462 -0.26920921 0.46990287 65280
-0.0053304099 -0.27070299 0.4676525 65280
-0.0019118959 -0.26967418 0.46868491 65280
0.0022853098 -0.2699101 0.47079229 65280
0.0073885941 -0.26924694 0.47220194 65280
0.012353857 -0.26939154 0.47245541 65280
0.017309221 -0.26992801 0.4719657 65280
0.022266259 -0.27051932 0.47157267 65280
0.027423922 -0.27018914 0.47132355 65280
0.032122258 -0.27030325 0.47152424 65280
0.036955964 -0.26963311 0.47226629 65280
0.042050838 -0.26948747 0.47282916 65280
0.047770999 -0.26926762 0.47223812 65280
0.052871384 -0.26955137 0.47166258 65280
0.057536051 -0.26912546 0.47151145 65280
0.062345982 -0.26905614 0.47215235 65280
0.067656271 -0.26882708 0.47289711 65280
0.07548853 -0.26895067 0.47311452 65280
0.083290659 -0.26895067 0.47311452 65280
0.10953418 -0.26895067 0.47311452 65280
0.11301067 -0.27024698 0.47204784 65280
0.11757848 -0.27086702 0.4717721 65280
0.1220962 -0.26998484 0.47242314 65280
0.12561131 -0.26936817 0.47289252 65280
-0.09589316 -0.26633489 0.47280651 65280
-0.094217271 -0.26497468 0.47183084 65280
-0.0011059953 -0.26448643 0.47095791 65280
0.002419116 -0.26485395 0.47161186 65280
0.0073769423 -0.26568395 0.47308967 65280
0.012345932 -0.26607791 0.47379264 65280
0.017312761 -0.26622716 0.47405931 65280
0.022261137 -0.26607773 0.47379273 65280
0.027879708 -0.26562905 0.47299299 65280
0.032824136 -0.26557538 0.47289574 65280
0.037786484 -0.26567087 0.47306511 65280
0.042747933 -0.2657389 0.47318631 65280
0.047649521 -0.2654666 0.47270188 65280
0.052477863 -0.26486814 0.47163576 65280
0.057384823 -0.26535413 0.47106278 65280
0.062527642 -0.26512289 0.47126669 65280
0.06736616 -0.26518202 0.4721925 65280
0.07238429 -0.26546758 0.4727014 65280
0.077331029 -0.26546755 0.47270137 65280
0.082559653 -0.26534304 0.4727675 65280
0.087490745 -0.26580423 0.47303721 65280
0.092185892 -0.26586196 0.47376591 65280
0.097121917 -0.26559067 0.47457758 65280
0.10315062 -0.2651931 0.47511247 65280
0.10759016 -0.26595116 0.47414315 65280
0.11268099 -0.26550758 0.47277442 65280
0.11751515 -0.26524913 0.47231421 65280
0.12242813 -0.26548675 0.47299999 65280
0.12745102 -0.26633704 0.47425255 65280
0.13081272 -0.2651931 0.47511247 65280
-0.092667945 -0.26152903 0.4750787 65280
-0.08787021 -0.25905955 0.47497597 65280
-0.015905509 -0.25850904 0.47470245 65280
-0.012111862 -0.25924549 0.47487712 65280
-0.007326874 -0.26075014 0.47498325 65280
-0.0025215412 -0.26161265 0.47449934 65280
0.0024247828 -0.26188129 0.47498572 65280
0.0072066318 -0.26236027 0.47548613 65280
0.011886224 -0.26344225 0.47585475 65280
0.023001483 -0.26394057 0.47577843 65280
0.027933203 -0.2626982 0.47573113 65280
0.032295603 -0.26138943 0.47585136 65280
0.037757136 -0.2610983 0.47502446 65280
0.042703867 -0.26109833 0.47502452 65280
0.047589108 -0.26076689 0.47442204 65280
0.05193387 -0.26034206 0.47316152 65280
0.069300912 -0.26199982 0.47228006 65280
0.072821259 -0.26199982 0.47228006 65280
0.077749737 -0.26199982 0.47228006 65280
0.082678229 -0.26199982 0.47228006 65280
0.087606706 -0.26199982 0.47228006 65280
0.093171813 -0.26152569 0.47323996 65280
0.097912624 -0.26133037 0.47456139 65280
0.10255316 -0.26078391 0.47473869 65280
0.10733478 -0.26160723 0.47418761 65280
0.11184818 -0.26174709 0.47279194 65280
0.11788168 -0.26199982 0.47228006 65280
0.12317453 -0.26145795 0.47337711 65280
0.12734868 -0.26077968 0.47443897 65280
0.13237563 -0.26110429 0.47532341 65280
0.13753539 -0.26085266 0.47577295 65280
0.14284724 -0.26117897 0.4755044 65280
0.1474198 -0.26059034 0.47529468 65280
0.15258518 -0.26085204 0.47577327 65280
0.1573351 -0.26085988 0.47642547 65280
0.16258094 -0.26057011 0.47700423 65280
0.16769551 -0.26018301 0.47777638 65280
0.17266048 -0.26018301 0.47777638 65280
0.17762548 -0.26018301 0.47777638 65280
-0.086069815 -0.2584545 0.47756287 65280
-0.082235537 -0.25747797 0.47694948 65280
-0.077682674 -0.25663406 0.47717172 65280
-0.072854958 -0.25554278 0.47752541 65280
-0.067330897 -0.25469705 0.47654051 65280
-0.062416445 -0.25477561 0.47668749 65280
-0.057572458 -0.25516847 0.47742248 65280
-0.053086504 -0.25550434 0.47705513 65280
-0.047604788 -0.25469705 0.47654051 65280
-0.027168147 -0.2546578 0.47646707 65280
-0.022295805 -0.25594798 0.47738549 65280
-0.017904865 -0.25737506 0.47742897 65280
-0.013159265 -0.2586925 0.47800264 65280
0.03364075 -0.25893047 0.47844234 65280
0.037850011 -0.25819567 0.47807801 65280
0.042422377 -0.25801077 0.47844598 65280
0.047906563 -0.25718758 0.47792777 65280
0.052520417 -0.25636119 0.47666246 65280
0.055688914 -0.25495437 0.47602618 65280
0.1284427 -0.25702655 0.47492439 65280
0.13266714 -0.25702655 0.47492439 65280
0.13759562 -0.25702655 0.47492439 65280
0.14182004 -0.25702655 0.47492439 65280
0.15308514 -0.25702655 0.47492439 65280
0.15784955 -0.25696829 0.47540835 65280
0.16274038 -0.25661382 0.4762764 65280
0.16736874 -0.25627416 0.47676593 65280
0.17251322 -0.25695157 0.477456 65280
0.17741892 -0.2568436 0.47785318 65280
0.18228823 -0.25722405 0.47859466 65280
0.1861369 -0.25642544 0.4797743 65280
-0.067704722 -0.25486019 0.47985151 65280
-0.062762886 -0.25493839 0.47999874 65280
-0.057147659 -0.25517291 0.48044029 65280
-0.052182663 -0.25517291 0.48044029 65280
-0.047005862 -0.25429666 0.48000017 65280
-0.04247934 -0.25356495 0.47870654 65280
-0.037462704 -0.25358737 0.47917995 65280
-0.032623168 -0.25383234 0.47921151 65280
-0.027268728 -0.25435206 0.47889477 65280
-0.023811288 -0.25517291 0.48044029 65280
0.049954291 -0.25517291 0.48044029 65280
0.053015877 -0.25439048 0.48017681 65280
0.057605103 -0.25254068 0.47966182 65280
0.061359029 -0.25013518 0.47896612 65280
0.16847408 -0.25205332 0.47756872 65280
0.17225479 -0.25166541 0.47834119 65280
0.17747523 -0.2520723 0.47911584 65280
0.18268245 -0.2524409 0.47981656 65280
0.1871004 -0.25281119 0.4811298 65280
0.059884273 -0.25016284 0.4831042 65280
0.062757492 -0.24861223 0.48231074 65280
0.066820629 -0.24663097 0.48139563 65280
0.17249732 -0.24725768 0.4801186 65280
0.17735131 -0.2475376 0.48110223 65280
0.18262589 -0.24799521 0.48199162 65280
0.18713495 -0.24835186 0.48268291 65280
0.19039261 -0.24891031 0.48377016 65280
0.068592519 -0.24552591 0.48415393 65280
0.07236246 -0.24438238 0.48372376 65280
0.077367678 -0.24311361 0.48487034 65280
0.082384653 -0.2417987 0.48434249 65280
0.17444189 -0.24417901 0.48175555 65280
0.17792021 -0.24299134 0.48304766 65280
0.1823172 -0.2432157 0.48349461 65280
0.18689488 -0.24366462 0.48438853 65280
0.19069047 -0.24471864 0.4854326 65280
0.083213456 -0.24117331 0.48731777 65280
0.087319598 -0.23944618 0.48666298 65280
0.092214786 -0.2373966 0.48604134 65280
0.09675961 -0.23589025 0.48616275 65280
0.17771994 -0.23808487 0.48540768 65280
0.18258929 -0.23920971 0.48653713 65280
0.18716364 -0.24002247 0.48778811 65280
0.089674219 -0.23763761 0.48976398 65280
0.092991292 -0.23643005 0.48889592 65280
0.097806543 -0.23474142 0.48991969 65280
0.10187529 -0.23330104 0.48867202 65280
0.13829969 -0.23216031 0.48814601 65280
0.14261295 -0.23230363 0.48844731 65280
0.14772564 -0.23259026 0.48904997 65280
0.15247427 -0.23230363 0.48844731 65280
0.15519735 -0.23216031 0.48814601 65280
0.1671665 -0.23216031 0.48814601 65280
0.17301196 -0.23327582 0.48830792 65280
0.17754878 -0.23434387 0.48879713 65280
0.18202689 -0.23595636 0.48995003 65280
0.10313922 -0.23203489 0.49183691 65280
0.10726765 -0.23043144 0.4914563 65280
0.11225722 -0.22877167 0.49153343 65280
0.11767294 -0.22807783 0.49080208 65280
0.12253705 -0.22796032 0.49102631 65280
0.12757292 -0.22867718 0.49161601 65280
0.13242115 -0.23019516 0.49095276 65280
0.13721128 -0.23124449 0.49186888 65280
0.14264125 -0.23162711 0.4919689 65280
0.14756379 -0.23219989 0.4915227 65280
0.15294443 -0.23194939 0.49165589 65280
0.15775393 -0.23147984 0.49142018 65280
0.16277491 -0.23099437 0.49145576 65280
0.16761491 -0.23141974 0.49129033 65280
0.17260174 -0.23142408 0.4917734 65280
0.17721169 -0.23195547 0.49233219 65280
0.10882489 -0.22886996 0.4944258 65280
0.11371929 -0.22747797 0.49478844 65280
0.11763117 -0.22611435 0.49521154 65280
0.12235968 -0.22607245 0.49478072 65280
0.12672642 -0.22648406 0.4955326 65280
0.131522 -0.22886996 0.4944258 65280
0.11875488 -0.22385986 0.49708971 65280
0.1223013 -0.22354674 0.49725622 65280
0.21238042 -0.21634474 0.50108558 65280
0.21772659 -0.21697843 0.50032395 65280
0.22231039 -0.21728416 0.50058615 65280
0.22727539 -0.21634474 0.50108558 65280
0.23011254 -0.21634474 0.50108558 65280
-0.19616741 -0.21133465 0.50374949 65280
-0.19333026 -0.21133465 0.50374949 65280
-0.067786925 -0.21133465 0.50374949 65280
-0.06353122 -0.21133465 0.50374949 65280
-0.047217675 -0.21133465 0.50374949 65280
-0.041968971 -0.21183565 0.50348312 65280
-0.037760552 -0.21175218 0.50352758 65280
-0.032322701 -0.21133465 0.50374949 65280
-0.029485565 -0.21133465 0.50374949 65280
-0.0011141878 -0.21133465 0.50374949 65280
0.0024322341 -0.21133465 0.50374949 65280
0.017673234 -0.21155067 0.50335151 65280
0.02227854 -0.2124577 0.50277495 65280
0.027499776 -0.21215045 0.5024097 65280
0.032366805 -0.21238258 0.50226575 65280
0.037652351 -0.21218994 0.50247109 65280
0.042674951 -0.21264565 0.50222886 65280
0.047548804 -0.21261108 0.50210011 65280
0.052759077 -0.21245764 0.50277483 65280
0.057717096 -0.21181524 0.50306928 65280
0.062721409 -0.21196094 0.50341654 65280
0.067671016 -0.21191238 0.50330085 65280
0.072651394 -0.21133465 0.50374949 65280
0.077616386 -0.21133465 0.50374949 65280
0.082581379 -0.21133465 0.50374949 65280
0.088019222 -0.21175218 0.50352758 65280
0.092454232 -0.21183139 0.50310785 65280
0.097386755 -0.21176669 0.50295353 65280
0.102379 -0.21183139 0.50310785 65280
0.1071699 -0.21175218 0.50352758 65280
0.11279935 -0.21192321 0.50287026 65280
0.11759378 -0.21313024 0.50255221 65280
0.12259328 -0.21283978 0.50238299 65280
0.12735282 -0.21275181 0.50248122 65280
0.13259801 -0.21233468 0.50217962 65280
0.13712436 -0.21281713 0.50211191 65280
0.14246444 -0.21242058 0.50212675 65280
0.14760776 -0.21290116 0.50250477 65280
0.15283418 -0.21260023 0.50255388 65280
0.15742041 -0.21256508 0.50230253 65280
0.16263305 -0.2127768 0.50207669 65280
0.16746432 -0.21292149 0.50205636 65280
0.1723067 -0.21282861 0.50220013 65280
0.17751622 -0.21267915 0.50190198 65280
0.18225144 -0.21273917 0.50204444 65280
0.18729053 -0.21183324 0.50210011 65280
0.19243203 -0.2119824 0.50255573 65280
0.19768259 -0.21164945 0.50293493 65280
0.20248692 -0.21177256 0.50270766 65280
0.20773713 -0.21233 0.50191343 65280
0.21236093 -0.21248783 0.50103295 65280
0.21742082 -0.21258205 0.50089645 65280
0.22238527 -0.21225727 0.50090671 65280
0.22717635 -0.2124593 0.50096726 65280
0.23230384 -0.21296808 0.5017485 65280
0.23716861 -0.21213615 0.50281996 65280
0.24228287 -0.21263044 0.5028547 65280
0.24761687 -0.21239255 0.50262076 65280
0.25233677 -0.21216969 0.50330555 65280
-0.26638657 -0.20757708 0.50574744 65280
-0.26213086 -0.20757708 0.50574744 65280
-0.25702402 -0.20807809 0.50548106 65280
-0.25214574 -0.20816913 0.50486642 65280
-0.24726382 -0.20880452 0.50468302 65280
-0.24283044 -0.20786743 0.50521564 65280
-0.23943377 -0.20757708 0.50574744 65280
-0.20586096 -0.2079946 0.50552541 65280
-0.20214126 -0.20843396 0.50458395 65280
-0.19753946 -0.2085323 0.50435865 65280
-0.19268404 -0.20822887 0.50395948 65280
-0.18762955 -0.20847231 0.50455076 65280
-0.18290702 -0.20800179 0.50529516 65280
-0.177726 -0.20757708 0.50574744 65280
-0.17240638 -0.20789021 0.50558096 65280
-0.16822161 -0.20782758 0.50561422 65280
-0.16250011 -0.20830822 0.50487328 65280
-0.15776931 -0.20870245 0.50477165 65280
-0.15261833 -0.2083734 0.50489932 65280
-0.1474767 -0.20789582 0.50493079 65280
-0.14219576 -0.20810795 0.50518203 65280
-0.1372968 -0.20757708 0.50574744 65280
-0.13445966 -0.20757708 0.50574744 65280
-0.12689395 -0.20841213 0.5053035 65280
-0.12232682 -0.20870245 0.50477165 65280
-0.11736488 -0.20870242 0.50477159 65280
-0.11240292 -0.20870245 0.50477165 65280
-0.10744098 -0.20870242 0.50477159 65280
-0.1027645 -0.20795035 0.50506359 65280
-0.097931512 -0.20789021 0.50558096 65280
-0.092153043 -0.20775129 0.50542831 65280
-0.08729925 -0.2079255 0.50510919 65280
-0.08263123 -0.20870245 0.50477165 65280
-0.07766334 -0.20852995 0.50481611 65280
-0.072651945 -0.20854264 0.50438458 65280
-0.067662314 -0.20844725 0.50415218 65280
-0.062687643 -0.2083829 0.50399768 65280
-0.057477511 -0.20861076 0.50417852 65280
-0.052592453 -0.20829865 0.50412834 65280
-0.047331501 -0.20859577 0.50417626 65280
-0.042434644 -0.20820671 0.50394034 65280
-0.037179273 -0.2082226 0.50361103 65280
-0.032229986 -0.20823321 0.50363678 65280
-0.027310854 -0.2084787 0.5042299 65280
-0.022577731 -0.20830819 0.50487328 65280
-0.017351599 -0.20857699 0.50480396 65280
-0.012266023 -0.2083386 0.50435162 65280
-0.0074839648 -0.20844725 0.50415218 65280
-0.0025281007 -0.20844728 0.50415224 65280
0.0024280271 -0.20847906 0.50422966 65280
0.0073881596 -0.20857444 0.50446206 65280
0.012344847 -0.20854267 0.50438464 65280
0.017283868 -0.20831929 0.50384265 65280
0.022195496 -0.20793523 0.50291437 65280
0.02781225 -0.20767947 0.5022952 65280
0.032749858 -0.2076795 0.50229526 65280
0.037693597 -0.20771128 0.50237268 65280
0.04265134 -0.20780672 0.5026052 65280
0.047562689 -0.20767947 0.5022952 65280
0.052543718 -0.20784935 0.50270832 65280
0.057553258 -0.20809515 0.50330114 65280
0.062541768 -0.20823324 0.50363684 65280
0.067437552 -0.20806338 0.50322372 65280
0.07238429 -0.20806341 0.50322372 65280
0.077331021 -0.20806341 0.50322372 65280
0.08236298 -0.20827639 0.50373966 65280
0.087304533 -0.20825456 0.50368845 65280
0.092776984 -0.20783904 0.50268227 65280
0.097644165 -0.20767953 0.50229532 65280
0.10250995 -0.20781028 0.5029465 65280
0.10745482 -0.20822665 0.50325024 65280
0.11263022 -0.20799902 0.50306922 65280
0.11761161 -0.20806341 0.50322372 65280
0.12250149 -0.20796683 0.50299191 65280
0.1275512 -0.20755477 0.50236154 65280
0.1323542 -0.20772243 0.50206643 65280
0.13754235 -0.20761755 0.50181341 65280
0.14298995 -0.20803484 0.50210631 65280
0.14750808 -0.20753126 0.50227106 65280
0.15240881 -0.20784251 0.50232178 65280
0.15755188 -0.20761511 0.50214064 65280
0.16243891 -0.20755102 0.50198603 65280
0.16750221 -0.20771129 0.50237274 65280
0.17269507 -0.20755477 0.50236154 65280
0.17742378 -0.20765242 0.50189775 65280
0.1825029 -0.20760232 0.50210971 65280
0.18737994 -0.20822519 0.50151968 65280
0.1923635 -0.20799242 0.50148171 65280
0.19750814 -0.20850071 0.50218213 65280
0.20274343 -0.20830134 0.50196463 65280
0.2074904 -0.20810881 0.50150067 65280
0.21227556 -0.207964 0.50115299 65280
0.21739012 -0.20812295 0.50092691 65280
0.22278798 -0.20853738 0.50070655 65280
0.22813889 -0.20828873 0.50083876 65280
0.23314473 -0.20773856 0.50198072 65280
0.23735707 -0.20772189 0.50239855 65280
0.24241926 -0.20787986 0.50311542 65280
0.24726558 -0.20811079 0.50297201 65280
0.25198403 -0.20814843 0.50343019 65280
-0.30721071 -0.20361216 0.50722647 65280
-0.30265191 -0.20363796 0.50763601 65280
-0.2973924 -0.20346168 0.5079357 65280
-0.29278633 -0.20375814 0.50721174 65280
-0.28774735 -0.20340039 0.50704163 65280
-0.28246802 -0.20362808 0.50692052 65280
-0.2773526 -0.20356038 0.50675058 65280
-0.272291 -0.20398512 0.50669903 65280
-0.26746085 -0.20391597 0.50608963 65280
-0.26268411 -0.20377739 0.50574535 65280
-0.25739524 -0.20350875 0.50507915 65280
-0.25245279 -0.20350941 0.50507879 65280
-0.24741559 -0.20342115 0.50523901 65280
-0.24245262 -0.20392802 0.50558424 65280
-0.23753172 -0.20383093 0.50600272 65280
-0.23254912 -0.20338373 0.50665569 65280
-0.22778784 -0.20355625 0.50750792 65280
-0.22258185 -0.20289099 0.5075919 65280
-0.21740694 -0.20314217 0.5071348 65280
-0.21238726 -0.20370601 0.50658619 65280
-0.20753671 -0.20412938 0.50618672 65280
-0.20227322 -0.20345357 0.50494665 65280
-0.19746305 -0.20322596 0.50438005 65280
-0.19206655 -0.20423117 0.50375122 65280
-0.18753861 -0.20374252 0.50416201 65280
-0.18270291 -0.20419334 0.50456071 65280
-0.17746885 -0.20389305 0.50478041 65280
-0.17249961 -0.20334665 0.50505203 65280
-0.16737099 -0.20374092 0.50511754 65280
-0.16247566 -0.20327252 0.50463849 65280
-0.15744729 -0.20410497 0.50430906 65280
-0.15254483 -0.20379508 0.50425768 65280
-0.14722158 -0.20346096 0.50496298 65280
-0.14230788 -0.20395607 0.50575614 65280
-0.13755982 -0.20387155 0.50635862 65280
-0.13248423 -0.20407258 0.50604266 65280
-0.12738602 -0.2034466 0.505301 65280
-0.12240545 -0.20378259 0.50532562 65280
-0.11756992 -0.20357072 0.50561249 65280
-0.11261122 -0.20395479 0.50575668 65280
-0.10771648 -0.20364517 0.50579935 65280
-0.10249465 -0.20392755 0.50558454 65280
-0.097544529 -0.20335704 0.50524056 65280
-0.092512608 -0.20374089 0.50511748 65280
-0.087764777 -0.20345545 0.50463557 65280
-0.082431771 -0.20409009 0.50430673 65280
-0.077471986 -0.20318551 0.50442338 65280
-0.072571166 -0.20364055 0.50460452 65280
-0.067372143 -0.20381647 0.5039717 65280
-0.062417742 -0.20437542 0.50348574 65280
-0.057484698 -0.20437542 0.50348574 65280
-0.052343536 -0.20427279 0.50385487 65280
-0.04766266 -0.20394266 0.50428218 65280
-0.042712539 -0.20387962 0.50412685 65280
-0.037948687 -0.20408191 0.50356096 65280
-0.032819465 -0.20437542 0.50348574 65280
-0.027009541 -0.20402132 0.50413728 65280
-0.02226923 -0.20394266 0.50428218 65280
-0.01761096 -0.2041537 0.50405669 65280
-0.012382556 -0.20437542 0.50348574 65280
-0.0072162468 -0.20423117 0.50375122 65280
-0.0023777145 -0.2036936 0.50441456 65280
0.0024188212 -0.20332004 0.50461322 65280
0.0073564313 -0.20332001 0.50461316 65280
0.012131264 -0.20375107 0.50438404 65280
0.016930392 -0.20446186 0.50332659 65280
0.020720147 -0.20480745 0.50268978 65280
0.037617806 -0.20480745 0.50268978 65280
0.042827915 -0.20431012 0.50295424 65280
0.047474772 -0.20480745 0.50268978 65280
0.052403253 -0.20480745 0.50268978 65280
0.057776194 -0.20463468 0.50300819 65280
0.062024195 -0.20446186 0.50332659 65280
0.067188703 -0.20480745 0.50268978 65280
0.072821259 -0.20480745 0.50268978 65280
0.078101777 -0.20449662 0.50285506 65280
0.082964391 -0.204105 0.5034408 65280
0.087660789 -0.20369056 0.50366116 65280
0.092006184 -0.20388259 0.50330734 65280
0.098871812 -0.20480745 0.50268978 65280
0.10215747 -0.20480745 0.50268978 65280
0.10732064 -0.20480745 0.50268978 65280
0.11365727 -0.20480745 0.50268978 65280
0.11764231 -0.20420536 0.50333351 65280
0.12216165 -0.20490226 0.50292248 65280
0.12562644 -0.20480745 0.50268978 65280
0.15097293 -0.20480745 0.50268978 65280
0.16857466 -0.20480745 0.50268978 65280
0.17139092 -0.20480745 0.50268978 65280
0.23898156 -0.20480745 0.50268978 65280
0.2425019 -0.20480745 0.50268978 65280
0.24743038 -0.20480745 0.50268978 65280
0.25204527 -0.20451944 0.50322044 65280
-0.3067975 -0.19950539 0.50777411 65280
-0.3029215 -0.19938076 0.50835514 65280
-0.29752785 -0.19954169 0.5084154 65280
-0.29208174 -0.19920486 0.50755638 65280
-0.28743064 -0.19891909 0.50682741 65280
-0.28260145 -0.19897221 0.50661606 65280
-0.27763954 -0.19865112 0.50652939 65280
-0.27242461 -0.19939756 0.50613248 65280
-0.26740953 -0.1993359 0.50597656 65280
-0.26301971 -0.1998342 0.50533414 65280
-0.25245866 -0.1998342 0.50533414 65280
-0.24717815 -0.19952337 0.50549936 65280
-0.24250111 -0.19930136 0.50561744 65280
-0.23767321 -0.1998342 0.50533414 65280
-0.23208319 -0.19969042 0.50605768 65280
-0.22729675 -0.19909833 0.50685793 65280
-0.2225942 -0.19896033 0.5069313 65280
-0.21739177 -0.19877979 0.50682133 65280
-0.21263313 -0.19887823 0.50672328 65280
-0.20763645 -0.19887191 0.50636053 65280
-0.20277843 -0.19905186 0.50607365 65280
-0.1989494 -0.1998342 0.50533414 65280
-0.14614423 -0.1998342 0.50533414 65280
-0.14262389 -0.1998342 0.50533414 65280
-0.1377804 -0.19995756 0.50564605 65280
-0.133471 -0.1998342 0.50533414 65280
-0.12220588 -0.1998342 0.50533414 65280
-0.11713836 -0.19916953 0.50619084 65280
-0.11253355 -0.19891909 0.50682741 65280
-0.10775783 -0.1989724 0.50661594 65280
-0.10249195 -0.19921255 0.50566465 65280
-0.09756346 -0.1998342 0.50533414 65280
0.0024143502 -0.1998342 0.50533414 65280
0.0059346952 -0.1998342 0.50533414 65280
-0.30639255 -0.19575441 0.50835282 65280
-0.30250174 -0.19520271 0.5084762 65280
-0.29753181 -0.19560099 0.50823206 65280
-0.29298109 -0.19567959 0.50776964 65280
-0.28836617 -0.19610427 0.50731736 65280
-0.3005487 -0.29606771 0.46039498 65280
-0.29844913 -0.29896882 0.46070227 65280
-0.097042106 -0.29796734 0.46334893 65280
-0.092747293 -0.29796734 0.46334893 65280
-0.30115068 -0.29346561 0.46192011 65280
-0.29883957 -0.29515797 0.46387202 65280
-0.097293332 -0.29520568 0.46459079 65280
-0.092690974 -0.2952607 0.46441057 65280
-0.087939173 -0.29489887 0.4647288 65280
-0.083083943 -0.29449123 0.46519721 65280
-0.079147018 -0.29417524 0.46536523 65280
-0.30590841 -0.28760642 0.4647052 65280
-0.30261526 -0.2900407 0.46565235 65280
-0.29934099 -0.29264444 0.46561292 65280
-0.10216784 -0.28961033 0.46703738 65280
-0.097592764 -0.29022461 0.46550274 65280
-0.092524089 -0.28948662 0.46489602 65280
-0.087495238 -0.28987154 0.46493539 65280
-0.082573563 -0.28956839 0.46502686 65280
-0.07748457 -0.29015684 0.4656615 65280
-0.072783761 -0.28982961 0.46682647 65280
-0.067632511 -0.28948781 0.46729133 65280
-0.062570229 -0.28922409 0.46686524 65280
-0.057801265 -0.28933948 0.4662376 65280
-0.052871346 -0.28920341 0.46710271 65280
-0.04908327 -0.28911909 0.46805361 65280
-0.041925233 -0.28911909 0.46805361 65280
-0.037597444 -0.28885579 0.46762738 65280
-0.032560371 -0.28859246 0.46720108 65280
-0.027558872 -0.28859246 0.46720108 65280
-0.022557372 -0.28859246 0.46720108 65280
-0.017578924 -0.28898746 0.46784049 65280
-0.012577285 -0.28911909 0.46805361 65280
-0.0075666606 -0.28911909 0.46805361 65280
-0.31007943 -0.28439638 0.46716699 65280
-0.30755359 -0.28554526 0.46768871 65280
-0.30420771 -0.28714582 0.46825346 65280
-0.10703661 -0.28550485 0.46816328 65280
-0.1022087 -0.28628206 0.46616435 65280
-0.099177413 -0.28575778 0.4653106 65280
-0.075727999 -0.28575778 0.4653106 65280
-0.071996257 -0.28567529 0.46626052 65280
-0.067370981 -0.28585044 0.4668186 65280
-0.062303811 -0.28610733 0.46587977 65280
-0.059384469 -0.28575778 0.4653106 65280
-0.051970609 -0.28570622 0.4659043 65280
-0.047444377 -0.2859818 0.4670319 65280
-0.042473182 -0.28609088 0.46720991 65280
-0.037424784 -0.28565469 0.46649802 65280
-0.032431196 -0.28556731 0.46635571 65280
-0.027483435 -0.2859157 0.46692547 65280
-0.022475045 -0.28502652 0.46683201 65280
-0.017512072 -0.28537431 0.4674021 65280
-0.012531467 -0.28554851 0.46768698 65280
-0.0075390958 -0.28554851 0.46768698 65280
-0.0025499936 -0.28601229 0.46844715 65280
0.0019766728 -0.2854881 0.46941802 65280
0.0060336073 -0.28532699 0.47006992 65280
0.012475839 -0.28532699 0.47006992 65280
0.017486464 -0.28532699 0.47006992 65280
0.10910932 -0.28532699 0.47006992 65280
0.11268834 -0.28532699 0.47006992 65280
-0.31099933 -0.28209546 0.4709388 65280
-0.30886763 -0.28324738 0.47049618 65280
-0.016749177 -0.2819933 0.46731219 65280
-0.012774465 -0.28159484 0.46775052 65280
-0.0075115305 -0.2819933 0.46731222 65280
-0.0023611155 -0.28115374 0.4683249 65280
0.0024483253 -0.28120479 0.47013813 65280
0.0074540996 -0.28173974 0.47103342 65280
0.012447109 -0.28152561 0.47067541 65280
0.017435817 -0.28135458 0.47038886 65280
0.022300508 -0.28135753 0.4706704 65280
0.027278984 -0.28086552 0.47130957 65280
0.032022264 -0.28052208 0.47224724 65280
0.082931362 -0.28081259 0.47247025 65280
0.087348893 -0.28077647 0.47248948 65280
0.092645839 -0.28027087 0.47275829 65280
0.097656466 -0.28027087 0.47275829 65280
0.10280136 -0.2808297 0.47183201 65280
0.10775558 -0.28112555 0.47069934 65280
0.11246125 -0.28136948 0.47013554 65280
0.11744929 -0.28156942 0.47074655 65280
0.12233257 -0.28100121 0.47144324 65280
0.1276039 -0.28064764 0.47199175 65280
0.13232102 -0.28059381 0.47210121 65280
0.13630986 -0.28027087 0.47275829 65280
-0.10901184 -0.27660602 0.4735744 65280
0.0033295276 -0.27619249 0.47110441 65280
0.0074340659 -0.27656284 0.47208723 65280
0.012417941 -0.27647841 0.47194338 65280
0.017376462 -0.27600098 0.4711276 65280
0.022633802 -0.27617341 0.47085971 65280
0.027335711 -0.27600124 0.47112745 65280
0.032371562 -0.27647957 0.47194275 65280
0.037248455 -0.27682766 0.47289023 65280
0.042491652 -0.27679572 0.4738982 65280
0.047477167 -0.27669072 0.47371808 65280
0.052442145 -0.27648044 0.47335806 65280
0.057134915 -0.27641708 0.47395805 65280
0.061150484 -0.27647877 0.4747746 65280
0.07804361 -0.27715361 0.4740383 65280
0.082499169 -0.27732161 0.47338265 65280
0.087528795 -0.27740628 0.47352639 65280
0.092533343 -0.27740628 0.47352639 65280
0.097438768 -0.277125 0.47304678 65280
0.10233885 -0.27685821 0.4725908 65280
0.1077672 -0.27614135 0.47136754 65280
0.11257789 -0.27571917 0.4706482 65280
0.11764219 -0.2759307 0.47100759 65280
0.12280118 -0.27633852 0.47170311 65280
0.12740037 -0.2763024 0.47192368 65280
0.13253045 -0.27703005 0.47262815 65280
0.13740668 -0.27726889 0.47364667 65280
0.14060467 -0.27647877 0.4747746 65280
-0.10605894 -0.27446279 0.47414768 65280
-0.10203821 -0.27169269 0.47505429 65280
-0.099177413 -0.26944506 0.47398421 65280
0.0045684697 -0.27320954 0.47198263 65280
0.0074176216 -0.27283275 0.47274923 65280
0.012392973 -0.27277011 0.47264099 65280
0.017359057 -0.27320954 0.47198263 65280
0.033702586 -0.27320954 0.47198263 65280
0.03756763 -0.27290812 0.4725959 65280
0.042387102 -0.27287376 0.47329369 65280
0.04726107 -0.27291632 0.47289357 65280
0.051767979 -0.27312547 0.47278237 65280
0.057696074 -0.27291632 0.47289357 65280
0.06285952 -0.27330169 0.47391564 65280
0.067360446 -0.27301097 0.4744792 65280
0.072454251 -0.27235267 0.47447684 65280
0.077615827 -0.27207693 0.47428367 65280
0.082152359 -0.27237684 0.47381923 65280
0.087423891 -0.27183589 0.47419399 65280
0.092337944 -0.27211872 0.47407272 65280
0.097715884 -0.27176669 0.4740333 65280
0.10261301 -0.27200872 0.47384071 65280
0.10748746 -0.27151945 0.47303224 65280
0.11115671 -0.27258211 0.47231621 65280
0.12288141 -0.27289581 0.4721494 65280
0.12790115 -0.27170369 0.47287041 65280
0.13281935 -0.27203324 0.47421253 65280
0.1374076 -0.27265546 0.47529739 65280
0.142399 -0.27276462 0.4761022 65280
0.14762814 -0.27307087 0.47602028 65280
0.1526342 -0.27307087 0.47602028 65280
0.15756942 -0.27246687 0.4767662 65280
0.16136299 -0.27142262 0.47746301 65280
-0.098294653 -0.26775131 0.4767724 65280
0.094102591 -0.26819023 0.47465143 65280
0.098081879 -0.26793927 0.47478485 65280
0.10242661 -0.26729393 0.475128 65280
0.10618259 -0.26819023 0.47465143 65280
0.129632 -0.26819023 0.47465143 65280
0.13274381 -0.2672765 0.47556201 65280
0.1372994 -0.26734939 0.47634432 65280
0.14235434 -0.26789692 0.47676364 65280
0.14737514 -0.26754525 0.47669312 65280
0.15243624 -0.26807547 0.47708055 65280
0.15730554 -0.26807925 0.47735307 65280
0.16252354 -0.26844651 0.4780072 65280
0.16742642 -0.26825452 0.47850037 65280
0.17213455 -0.26749334 0.47864616 65280
0.17711066 -0.26763052 0.47947928 65280
-0.096778274 -0.26469356 0.47934204 65280
-0.092953667 -0.26113954 0.47953287 65280
