# .PCD v0.7 - Point Cloud Data file format
VERSION 0.7
FIELDS x y z rgba
SIZE 4 4 4 4
TYPE F F F U
COUNT 1 1 1 1
<<<<<<< HEAD
WIDTH 1100
HEIGHT 1
VIEWPOINT 0 0 0 1 0 0 0
POINTS 1100
DATA ascii
0.16281989 -0.53136873 0.48768064 16711680
0.15731531 -0.53180283 0.48723188 16711680
0.15227622 -0.53160733 0.48690143 16711680
0.14728457 -0.53148615 0.48689362 16711680
0.14234865 -0.53162307 0.48709515 16711680
0.13712309 -0.53148067 0.48693112 16711680
0.13232574 -0.53096968 0.48673561 16711680
0.1281549 -0.53114587 0.48683408 16711680
0.12283582 -0.53101242 0.48722973 16711680
0.11779319 -0.53148615 0.48689362 16711680
0.11262803 -0.53154582 0.48650065 16711680
0.10778682 -0.53183442 0.48702213 16711680
0.1021325 -0.53127396 0.48663089 16711680
0.097238913 -0.53101504 0.48596361 16711680
0.092112102 -0.53102314 0.48591128 16711680
0.087017357 -0.53092784 0.48654005 16711680
0.082528599 -0.53149951 0.48680636 16711680
0.078362152 -0.53178275 0.48695698 16711680
0.072924897 -0.53138852 0.48754957 16711680
0.067604266 -0.53122687 0.48687717 16711680
0.062657401 -0.53092778 0.48654011 16711680
0.057670277 -0.53116703 0.48675546 16711680
0.052799284 -0.53128552 0.48712155 16711680
0.047046788 -0.53162742 0.48731485 16711680
0.042015325 -0.53160733 0.48690143 16711680
0.037027068 -0.53095961 0.4863306 16711680
0.032397393 -0.53114104 0.48614386 16711680
0.027943056 -0.5308153 0.48643258 16711680
0.023048021 -0.53116703 0.4867554 16711680
0.017655421 -0.53120244 0.48652253 16711680
0.012582012 -0.53138739 0.48635808 16711680
0.0075621754 -0.5309757 0.48622569 16711680
0.0024302006 -0.53096753 0.48627815 16711680
-0.0027232096 -0.5309357 0.48648772 16711680
-0.0078590959 -0.53104889 0.4869878 16711680
-0.012826398 -0.5316394 0.48669198 16711680
-0.017439887 -0.53152597 0.48663166 16711680
-0.021853797 -0.53088027 0.48685464 16711680
-0.027004018 -0.53119731 0.48746368 16711680
-0.03207317 -0.53147233 0.48757389 16711680
-0.037512682 -0.53193569 0.48798206 16711680
-0.043034665 -0.5317089 0.48786148 16711680
-0.047786154 -0.53136879 0.48768064 16711680
-0.052923203 -0.5319463 0.48716405 16711680
-0.057830945 -0.53207904 0.48702011 16711680
-0.062738121 -0.53220952 0.48689213 16711680
-0.067192405 -0.53196317 0.48697737 16711680
-0.071757555 -0.5315578 0.48778108 16711680
-0.078080282 -0.53198761 0.48763213 16711680
-0.082604483 -0.53130543 0.48674092 16711680
-0.087268189 -0.53153598 0.48656622 16711680
-0.09269312 -0.53138852 0.48754957 16711680
-0.097484022 -0.53170896 0.48786148 16711680
-0.1032812 -0.53144979 0.48772368 16711680
-0.10789396 -0.53126651 0.48734316 16711680
-0.11252214 -0.53121543 0.48695192 16711680
-0.11760551 -0.5310412 0.48660049 16711680
-0.12240848 -0.53088772 0.48635516 16711680
-0.12697057 -0.53057683 0.48699817 16711680
-0.13061595 -0.53193569 0.48798206 16711680
-0.15244706 -0.53193569 0.48798212 16711680
-0.15694171 -0.53193569 0.48798206 16711680
-0.16207844 -0.53193569 0.48798206 16711680
-0.16593099 -0.53193569 0.48798206 16711680
0.34087646 -0.53504497 0.48817918 16711680
0.33736977 -0.5358426 0.48766848 16711680
0.3323386 -0.53569013 0.48731688 16711680
0.32744536 -0.53533983 0.48752698 16711680
0.32257161 -0.53565395 0.48796365 16711680
0.31751013 -0.53570777 0.48808029 16711680
0.31261975 -0.53552091 0.4880406 16711680
0.30748448 -0.53564721 0.48801395 16711680
0.30254385 -0.53550607 0.48811874 16711680
0.2976959 -0.53556854 0.48815826 16711680
0.29253444 -0.53568918 0.48777243 16711680
0.28761381 -0.53593892 0.48746803 16711680
0.28234398 -0.53630632 0.48726228 16711680
0.27748895 -0.53565258 0.48758003 16711680
0.27244985 -0.53536606 0.48841611 16711680
0.267405 -0.53562343 0.48827735 16711680
0.26257572 -0.53556985 0.48770884 16711680
0.25738919 -0.53571993 0.48751327 16711680
0.2521888 -0.53564519 0.48763266 16711680
0.24747568 -0.53563738 0.48768523 16711680
0.24274354 -0.53563768 0.48768535 16711680
0.23761007 -0.53564519 0.4876326 16711680
0.23259519 -0.53578812 0.48752698 16711680
0.22768424 -0.53593886 0.48746791 16711680
0.222376 -0.53627801 0.48745957 16711680
0.21720444 -0.53581166 0.48736057 16711680
0.2123338 -0.53562212 0.48779038 16711680
0.20772366 -0.53572309 0.48765531 16711680
0.20296152 -0.53645617 0.4870635 16711680
0.19803052 -0.53617615 0.48635367 16711680
0.19274488 -0.53641868 0.48647264 16711680
0.18770657 -0.53638119 0.48673579 16711680
0.1826627 -0.53634459 0.48699948 16711680
0.17764249 -0.53628743 0.48739383 16711680
0.17245254 -0.53609848 0.48746398 16711680
0.16753966 -0.5356375 0.48768517 16711680
0.16239434 -0.53566003 0.48752734 16711680
0.15735671 -0.53596377 0.48729244 16711680
0.15204807 -0.53632498 0.48713061 16711680
0.14724201 -0.53613853 0.4872236 16711680
0.14249262 -0.53592229 0.48758504 16711680
0.13776416 -0.53644991 0.48747006 16711680
0.13289514 -0.53632468 0.48713049 16711680
0.12770584 -0.53593898 0.48746797 16711680
0.122877 -0.53575635 0.48774841 16711680
0.11759284 -0.5362969 0.48732802 16711680
0.11242847 -0.53638166 0.48673609 16711680
0.10721806 -0.53600496 0.48699978 16711680
0.10223126 -0.53636211 0.4868671 16711680
0.097237229 -0.5360561 0.48607817 16711680
0.091814548 -0.53618711 0.48627862 16711680
0.086921692 -0.53634328 0.48699877 16711680
0.082454987 -0.53634024 0.4870207 16711680
0.077874489 -0.53616846 0.48696825 16711680
0.072889507 -0.53568226 0.48736927 16711680
0.067920804 -0.53590578 0.48770198 16711680
0.062665202 -0.53625941 0.48759124 16711680
0.057559174 -0.53631526 0.48719624 16711680
0.052339733 -0.53581142 0.48736051 16711680
0.047435589 -0.53583491 0.48719403 16711680
0.042392973 -0.53596246 0.48672548 16711680
0.037140161 -0.5363524 0.48693284 16711680
0.032001048 -0.53627801 0.48745957 16711680
0.027181372 -0.53647083 0.48731938 16711680
0.022789847 -0.53612709 0.4872984 16711680
0.017958816 -0.5362969 0.48732802 16711680
0.012875911 -0.53633416 0.48706469 16711680
0.0077908412 -0.53636211 0.4868671 16711680
0.0026854724 -0.5363633 0.48686787 16711680
-0.0025147274 -0.53626019 0.48759165 16711680
-0.0077380687 -0.53573388 0.48791525 16711680
-0.012736849 -0.53625971 0.48759142 16711680
-0.017765433 -0.53633386 0.48706451 16711680
-0.022982568 -0.53610706 0.48740193 16711680
-0.027562365 -0.53576618 0.4872503 16711680
-0.0325066 -0.53572285 0.48708346 16711680
-0.037478171 -0.53565735 0.4870666 16711680
-0.042425022 -0.53566682 0.48747429 16711680
-0.04721088 -0.53529191 0.4871017 16711680
-0.051846273 -0.53521049 0.48643884 16711680
-0.057187729 -0.53530282 0.48580834 16711680
-0.062288076 -0.53530282 0.48580834 16711680
-0.067843542 -0.53550726 0.48648342 16711680
-0.072587371 -0.53588313 0.48737535 16711680
-0.077585816 -0.53560412 0.4875057 16711680
-0.082820907 -0.53636205 0.4868671 16711680
-0.087583363 -0.53655648 0.48671767 16711680
-0.092524737 -0.53567481 0.48742202 16711680
-0.097569585 -0.53538114 0.48805234 16711680
-0.1023764 -0.53561461 0.48784301 16711680
-0.10744175 -0.53563774 0.48768535 16711680
-0.11235495 -0.53591406 0.48764351 16711680
-0.11746454 -0.53628749 0.48739383 16711680
-0.12240788 -0.53635246 0.48693284 16711680
-0.1276492 -0.53584188 0.48766807 16711680
-0.13251747 -0.53570735 0.4887841 16711680
-0.13733642 -0.53631055 0.48936448 16711680
-0.14274277 -0.53647995 0.48869947 16711680
-0.14762786 -0.53537965 0.4874815 16711680
-0.15262301 -0.5351482 0.48685887 16711680
-0.15756719 -0.53565723 0.48706648 16711680
-0.16236094 -0.53566211 0.48750958 16711680
-0.16741553 -0.53559822 0.48794749 16711680
-0.17127106 -0.53481555 0.48809758 16711680
0.34028146 -0.53973514 0.48873141 16711680
0.3373183 -0.54052556 0.4887161 16711680
0.33268496 -0.54039276 0.48832604 16711680
0.32761985 -0.53987819 0.48767492 16711680
0.3224802 -0.54015791 0.48827669 16711680
0.31760129 -0.54039246 0.48832592 16711680
0.31265917 -0.54003358 0.48800924 16711680
0.30736256 -0.54040456 0.48823789 16711680
0.30253795 -0.54027301 0.48839954 16711680
0.29698369 -0.54015791 0.48827669 16711680
0.29226267 -0.54034513 0.48867831 16711680
0.2875582 -0.54022777 0.48865363 16711680
0.28331035 -0.54011923 0.48780307 16711680
0.27794224 -0.53931588 0.48737589 16711680
0.27268064 -0.53975159 0.48811099 16711680
0.26765579 -0.53989673 0.48817018 16711680
0.26265681 -0.53931588 0.48737589 16711680
0.25717956 -0.53954083 0.48749551 16711680
0.25265783 -0.53980613 0.48820284 16711680
0.24755751 -0.53980613 0.48820284 16711680
0.24245718 -0.53980613 0.48820284 16711680
0.23770383 -0.53948313 0.48791787 16711680
0.23197666 -0.53942537 0.48834023 16711680
0.22656626 -0.53969079 0.48757526 16711680
0.22285104 -0.53959703 0.48752543 16711680
0.21807435 -0.53931588 0.48737589 16711680
0.21297921 -0.53931588 0.48737589 16711680
0.20773602 -0.54003358 0.48800924 16711680
0.20346656 -0.53993791 0.48786846 16711680
0.18686661 -0.53931588 0.48737589 16711680
0.18240836 -0.53987825 0.48767492 16711680
0.17742783 -0.53980613 0.4882029 16711680
0.1723275 -0.53980613 0.48820284 16711680
0.16702504 -0.54028589 0.48830351 16711680
0.16235809 -0.53975672 0.4879339 16711680
0.15693268 -0.53931588 0.48737589 16711680
0.15247443 -0.53931588 0.48737589 16711680
0.14839831 -0.53954083 0.48749551 16711680
0.14292103 -0.53931588 0.48737589 16711680
0.13782591 -0.53931588 0.48737589 16711680
0.12727828 -0.53951198 0.48770675 16711680
0.12258501 -0.53982413 0.48807088 16711680
0.11786994 -0.53969079 0.48757526 16711680
0.11235021 -0.53931588 0.48737589 16711680
0.10725507 -0.53931588 0.48737589 16711680
0.10343371 -0.53931588 0.48737589 16711680
0.086874507 -0.53931588 0.48737589 16711680
0.083053157 -0.53931588 0.48737589 16711680
0.077958018 -0.53931588 0.48737589 16711680
0.072227336 -0.54029959 0.4880248 16711680
0.067952931 -0.54068011 0.48874852 16711680
0.062925369 -0.54014373 0.48838237 16711680
0.057577457 -0.53931588 0.48737589 16711680
0.052482318 -0.53931588 0.48737589 16711680
0.048660964 -0.53931588 0.48737589 16711680
0.035286225 -0.53931588 0.48737589 16711680
0.032101758 -0.53931588 0.48737589 16711680
0.027006619 -0.53931588 0.48737589 16711680
0.021274589 -0.53959709 0.48752543 16711680
0.017771684 -0.53959709 0.48752543 16711680
0.01299499 -0.53931588 0.48737589 16711680
0.0078998506 -0.53931588 0.48737589 16711680
0.0025130622 -0.53977728 0.48778304 16711680
-0.0026893169 -0.54045069 0.48864004 16711680
-0.0073295012 -0.54052562 0.48871604 16711680
-0.012061201 -0.53996503 0.4881458 16711680
-0.017363548 -0.53931588 0.48737589 16711680
-0.022670992 -0.53931588 0.48737589 16711680
-0.025855452 -0.53931588 0.48737589 16711680
-0.039867081 -0.53931588 0.48737589 16711680
-0.04241465 -0.53931588 0.48737589 16711680
-0.074259266 -0.53931594 0.48737589 16711680
-0.077231437 -0.53931594 0.48737589 16711680
-0.093366042 -0.53931594 0.48737589 16711680
-0.098206416 -0.53954089 0.48749551 16711680
-0.1027444 -0.53991735 0.48801926 16711680
-0.10790001 -0.54015797 0.48827669 16711680
-0.1123151 -0.53971553 0.48823556 16711680
-0.1170229 -0.53927982 0.48763987 16711680
-0.12775822 -0.53931594 0.48737589 16711680
-0.1329094 -0.53959465 0.48827913 16711680
-0.13751808 -0.53980613 0.48820284 16711680
-0.14155626 -0.53956103 0.48778936 16711680
-0.15960285 -0.53931594 0.48737589 16711680
-0.1632119 -0.53969085 0.48757526 16711680
-0.16760951 -0.5399586 0.4877176 16711680
-0.17027231 -0.5391717 0.48843184 16711680
0.21634577 -0.52083749 0.48774388 16711680
0.21245424 -0.52083749 0.48774388 16711680
0.2079141 -0.52083749 0.48774394 16711680
0.20337395 -0.52083749 0.48774388 16711680
0.18586203 -0.52083749 0.48774394 16711680
0.18326768 -0.52083749 0.48774394 16711680
0.17678177 -0.52083749 0.48774394 16711680
0.17483598 -0.52083749 0.48774394 16711680
0.16770151 -0.52083749 0.48774394 16711680
0.1612156 -0.52083749 0.48774394 16711680
0.13220088 -0.52051526 0.48719504 16711680
0.12742628 -0.52035415 0.48692068 16711680
0.12271278 -0.52048546 0.48736796 16711680
0.11711144 -0.52083749 0.48774394 16711680
0.11386849 -0.52083749 0.48774394 16711680
0.10089669 -0.52083749 0.48774394 16711680
0.097264573 -0.52060843 0.48762211 16711680
0.092443876 -0.5203318 0.48705032 16711680
0.087701023 -0.52048546 0.48736796 16711680
0.083384737 -0.52083749 0.48774394 16711680
0.071061522 -0.52083749 0.48774394 16711680
0.067818575 -0.52083749 0.48774394 16711680
0.062629849 -0.52083749 0.48774394 16711680
0.057441123 -0.52083749 0.48774394 16711680
0.052900992 -0.52083749 0.48774388 16711680
0.042264108 -0.5203793 0.48750028 16711680
0.038099825 -0.52042317 0.48703822 16711680
0.033029538 -0.52089453 0.48674467 16711680
0.02792431 -0.5207504 0.48679158 16711680
0.022448752 -0.5203318 0.48705032 16711680
0.019174285 -0.52083749 0.48774394 16711680
0.0029595271 -0.52083749 0.48774394 16711680
-0.0021842867 -0.52051526 0.48719504 16711680
-0.0067693293 -0.52083749 0.48774388 16711680
-0.012606643 -0.52083749 0.48774394 16711680
-0.018150561 -0.52064413 0.48741463 16711680
-0.022895932 -0.52035415 0.48692068 16711680
-0.026875637 -0.52083749 0.48774394 16711680
-0.12740716 -0.52083755 0.48774388 16711680
-0.13188173 -0.52048546 0.48736802 16711680
-0.13519023 -0.52083749 0.48774394 16711680
0.34226418 -0.5247699 0.48870227 16711680
0.33743599 -0.52491146 0.48870209 16711680
0.33264431 -0.52495217 0.48976997 16711680
0.32790336 -0.52541882 0.49017987 16711680
0.31752589 -0.52541882 0.49017987 16711680
0.31247121 -0.5250653 0.48980311 16711680
0.30724618 -0.52460468 0.48906752 16711680
0.30222481 -0.524198 0.48839822 16711680
0.29745626 -0.52492619 0.48825243 16711680
0.29235047 -0.52514279 0.4882966 16711680
0.28717583 -0.52480602 0.48773053 16711680
0.28271836 -0.52480459 0.48765478 16711680
0.27780193 -0.52513802 0.48829839 16711680
0.27237189 -0.52473056 0.48931059 16711680
0.26728654 -0.52453864 0.4885793 16711680
0.2622748 -0.52463466 0.48815349 16711680
0.25744003 -0.52458155 0.48809877 16711680
0.25262806 -0.5246858 0.48824033 16711680
0.24740982 -0.52523065 0.48826775 16711680
0.24266373 -0.5248183 0.48840442 16711680
0.23743284 -0.52521938 0.48833725 16711680
0.23237124 -0.5247041 0.48826751 16711680
0.22743253 -0.52451074 0.48811153 16711680
0.22244737 -0.52461958 0.48786733 16711680
0.2176562 -0.5246892 0.48782483 16711680
0.21262731 -0.52454519 0.48790333 16711680
0.20739858 -0.52458036 0.48769554 16711680
0.20236197 -0.52443987 0.48775181 16711680
0.19746235 -0.52448469 0.48826739 16711680
0.19227971 -0.52427053 0.4883109 16711680
0.18755457 -0.52460957 0.4879249 16711680
0.18249887 -0.52463889 0.48733023 16711680
0.17748761 -0.5247606 0.48738608 16711680
0.17255464 -0.52453649 0.48795518 16711680
0.16741337 -0.52451074 0.48811153 16711680
0.16235745 -0.52437627 0.48813537 16711680
0.15732291 -0.5245108 0.48811147 16711680
0.15226984 -0.52444512 0.48811236 16711680
0.14749882 -0.52464521 0.48813263 16711680
0.14267507 -0.52523065 0.48826775 16711680
0.13764045 -0.52453649 0.48795518 16711680
0.13235962 -0.524674 0.48712233 16711680
0.12716937 -0.52470863 0.48691413 16711680
0.12204148 -0.52465707 0.48722646 16711680
0.11726838 -0.52437204 0.4876245 16711680
0.11282118 -0.52478468 0.48770335 16711680
0.10790183 -0.52452779 0.48800734 16711680
0.10270235 -0.52458739 0.48764262 16711680
0.097493991 -0.52469081 0.48701808 16711680
0.092321903 -0.52471697 0.48686197 16711680
0.087170921 -0.52467376 0.48712221 16711680
0.082028702 -0.52456224 0.4877989 16711680
0.077512227 -0.5245108 0.48811147 16711680
0.072984219 -0.52451962 0.48805955 16711680
0.067807101 -0.52463126 0.48738274 16711680
0.062641762 -0.52470839 0.48691401 16711680
0.057477653 -0.52469134 0.4870182 16711680
0.052299205 -0.52458823 0.48764297 16711680
0.047114 -0.5245108 0.48811147 16711680
0.042070869 -0.52473432 0.48755071 16711680
0.037730142 -0.52438998 0.48683915 16711680
0.032853525 -0.52465183 0.48611292 16711680
0.027555577 -0.52490008 0.48663953 16711680
0.022612862 -0.52466542 0.4871743 16711680
0.017415006 -0.52460504 0.48753867 16711680
0.012230836 -0.52457905 0.48769477 16711680
0.0070901513 -0.52462131 0.48743406 16711680
0.0023330227 -0.52491599 0.48698112 16711680
-0.0022683516 -0.5246352 0.48696151 16711680
-0.0072530583 -0.52446687 0.48758742 16711680
-0.012303181 -0.52460557 0.48753884 16711680
-0.017421722 -0.52465683 0.48722646 16711680
-0.022570334 -0.52467436 0.48712245 16711680
-0.027677618 -0.52452868 0.48800763 16711680
-0.032096423 -0.52401513 0.48886719 16711680
-0.037389047 -0.52460474 0.48906752 16711680
-0.042567119 -0.52471524 0.48876759 16711680
-0.047253937 -0.52478158 0.48835459 16711680
-0.052642524 -0.52418905 0.48891619 16711680
-0.057649955 -0.52457035 0.48927572 16711680
-0.063067868 -0.52458757 0.48917159 16711680
-0.067371249 -0.52422702 0.48909315 16711680
-0.0719385 -0.52473062 0.48931059 16711680
-0.077786595 -0.52481282 0.48903397 16711680
-0.082458273 -0.52514219 0.48805085 16711680
-0.087297872 -0.52510548 0.48752156 16711680
-0.092463195 -0.52480626 0.48847887 16711680
-0.097716257 -0.52454793 0.48858425 16711680
-0.10266933 -0.52482098 0.4885551 16711680
-0.10742824 -0.52509922 0.48831114 16711680
-0.11243342 -0.52535188 0.48822764 16711680
-0.1174812 -0.52519745 0.48793027 16711680
-0.12267025 -0.52465403 0.48724154 16711680
-0.12739547 -0.52451348 0.48676714 16711680
-0.13239607 -0.52432334 0.48758402 16711680
-0.13740662 -0.52418417 0.48927167 16711680
-0.15270218 -0.52541888 0.49017987 16711680
-0.15772292 -0.52490973 0.48948446 16711680
-0.16208094 -0.52499461 0.48972782 16711680
-0.16697118 -0.52541888 0.49017987 16711680
-0.17215988 -0.52541888 0.49017987 16711680
-0.17540284 -0.52541888 0.49017987 16711680
0.34218815 -0.5287376 0.48822322 16711680
0.33745611 -0.52863741 0.488116 16711680
0.33251807 -0.52852672 0.4888123 16711680
0.32746688 -0.52877504 0.48923293 16711680
0.32279956 -0.52912104 0.48982033 16711680
0.31767797 -0.52864802 0.48934862 16711680
0.31238741 -0.52868873 0.48908707 16711680
0.30738527 -0.52892232 0.48872593 16711680
0.30243883 -0.52894002 0.48827681 16711680
0.29756004 -0.52899677 0.48811832 16711680
0.29311165 -0.52882361 0.48745999 16711680
0.28912261 -0.52836913 0.48721835 16711680
0.2814019 -0.52836913 0.48721835 16711680
0.27689594 -0.52846014 0.48775211 16711680
0.27234638 -0.5289582 0.48853073 16711680
0.26771045 -0.52894115 0.48839357 16711680
0.26229927 -0.52885479 0.4880428 16711680
0.25716752 -0.52874786 0.48741969 16711680
0.25226665 -0.52856344 0.48754808 16711680
0.24782766 -0.52894771 0.48801133 16711680
0.24278222 -0.52865577 0.48799989 16711680
0.23782571 -0.52885473 0.4880428 16711680
0.23267338 -0.52885479 0.4880428 16711680
0.22778596 -0.52874786 0.48741969 16711680
0.22182389 -0.5285964 0.48733911 16711680
0.21717748 -0.52887541 0.48791221 16711680
0.21247974 -0.52929318 0.48838916 16711680
0.20810367 -0.52890974 0.48769447 16711680
0.20290817 -0.52836919 0.48721835 16711680
0.19703446 -0.52828592 0.48774037 16711680
0.19312963 -0.5286929 0.48776802 16711680
0.18811017 -0.52836913 0.48721829 16711680
0.17524233 -0.52836919 0.48721835 16711680
0.17168182 -0.52856344 0.48754808 16711680
0.1672716 -0.52876186 0.48807433 16711680
0.16282646 -0.52894771 0.48801133 16711680
0.15796459 -0.52885479 0.4880428 16711680
0.15310967 -0.5285964 0.48733911 16711680
0.14757651 -0.52836919 0.48721835 16711680
0.14222011 -0.52878541 0.48792502 16711680
0.13741092 -0.5285964 0.48733911 16711680
0.13406529 -0.52836919 0.48721835 16711680
0.12634459 -0.52836913 0.48721829 16711680
0.12248424 -0.52836913 0.48721829 16711680
0.1179805 -0.52836919 0.48721835 16711680
0.11283337 -0.52836919 0.48721835 16711680
0.1077181 -0.52887541 0.48791221 16711680
0.10404035 -0.52874792 0.48741969 16711680
0.08195059 -0.52836919 0.48721835 16711680
0.077454798 -0.52888227 0.48786864 16711680
0.072951131 -0.52885479 0.4880428 16711680
0.067795977 -0.52836919 0.48721835 16711680
0.056214936 -0.52836919 0.48721835 16711680
0.051920749 -0.52872038 0.48759386 16711680
0.047189482 -0.52885479 0.4880428 16711680
0.04244636 -0.5285964 0.48733911 16711680
0.021471798 -0.52836919 0.48721835 16711680
0.018898234 -0.52836919 0.48721835 16711680
0.013107713 -0.52836919 0.48721829 16711680
-0.0074808076 -0.52836919 0.48721829 16711680
-0.011984549 -0.52836919 0.48721835 16711680
-0.017131679 -0.52836919 0.48721835 16711680
-0.023565598 -0.52836919 0.48721835 16711680
-0.02802664 -0.52854955 0.48802212 16711680
-0.032934219 -0.52836531 0.48843595 16711680
-0.037770584 -0.52890754 0.48848602 16711680
-0.042273723 -0.52886575 0.48826638 16711680
-0.047665387 -0.52863741 0.488116 16711680
-0.052307844 -0.52808434 0.48830232 16711680
-0.057268456 -0.52820271 0.48826239 16711680
-0.062425971 -0.52820271 0.48826239 16711680
-0.067606106 -0.52818918 0.48834953 16711680
-0.072854012 -0.52860272 0.48873636 16711680
-0.07750088 -0.52861369 0.48878285 16711680
-0.081866145 -0.52861202 0.48763058 16711680
-0.087904721 -0.52836919 0.48721835 16711680
-0.093085289 -0.52849239 0.48816469 16711680
-0.097586036 -0.52846527 0.48840192 16711680
-0.10185452 -0.52882659 0.48821649 16711680
-0.10697988 -0.52883255 0.48762652 16711680
-0.11235359 -0.52836919 0.48721835 16711680
-0.11557055 -0.52836919 0.48721835 16711680
-0.12908176 -0.52893728 0.48752037 16711680
-0.13269804 -0.52926016 0.48882452 16711680
-0.13744415 -0.5290156 0.49046424 16711680
-0.14229412 -0.5284313 0.49140415 16711680
-0.14750899 -0.52926219 0.49049756 16711680
-0.152346 -0.52879328 0.48957571 16711680
-0.15741828 -0.52868873 0.48908713 16711680
-0.16258097 -0.52868873 0.48908713 16711680
-0.16783841 -0.52884072 0.48959252 16711680
-0.17250188 -0.52909106 0.48962882 16711680
-0.13422889 -0.5329138 0.48963472 16711680
-0.13822323 -0.53275681 0.49068382 16711680
-0.1422302 -0.53263903 0.49072412 16711680
-0.14580995 -0.5329138 0.48963472 16711680
0.2217928 -0.50953269 0.48739585 16711680
0.17331621 -0.50953269 0.48739585 16711680
0.16742039 -0.50953269 0.48739585 16711680
0.16217968 -0.50953269 0.48739585 16711680
0.15759405 -0.50953269 0.48739585 16711680
0.15300843 -0.50953269 0.48739585 16711680
0.14776771 -0.50953269 0.48739585 16711680
0.142527 -0.50895429 0.48708829 16711680
0.13859648 -0.50953269 0.48739585 16711680
0.12287432 -0.50953269 0.48739585 16711680
0.10584199 -0.50953269 0.48739585 16711680
0.10256655 -0.50953269 0.48739585 16711680
0.098199286 -0.50953269 0.48739585 16711680
0.092085116 -0.50953269 0.48739585 16711680
0.087499492 -0.50953269 0.48739585 16711680
0.082258776 -0.50953269 0.48739585 16711680
-0.062515974 -0.50953269 0.48739585 16711680
-0.067101598 -0.50953269 0.48739585 16711680
-0.070377037 -0.50953269 0.48739585 16711680
-0.084133908 -0.50953269 0.48739585 16711680
-0.08773692 -0.50924349 0.48724207 16711680
-0.091994986 -0.50953269 0.48739585 16711680
0.34691489 -0.51358151 0.48954871 16711680
0.34298432 -0.51358151 0.48954871 16711680
0.33754119 -0.51365286 0.48916188 16711680
0.33217913 -0.51316017 0.48901579 16711680
0.32748058 -0.51338875 0.48944619 16711680
0.32202148 -0.51358151 0.48954871 16711680
0.31743586 -0.51358151 0.48954871 16711680
0.31285024 -0.51415992 0.48985621 16711680
0.30721647 -0.51392859 0.48973319 16711680
0.30214745 -0.51312554 0.48920336 16711680
0.29778317 -0.51329231 0.48939493 16711680
0.29254246 -0.51415992 0.48985621 16711680
0.28752011 -0.51377434 0.48965117 16711680
0.28299683 -0.51366419 0.48959264 16711680
0.27775615 -0.51366419 0.48959264 16711680
0.27184165 -0.51392859 0.48973319 16711680
0.26691285 -0.51257277 0.48892531 16711680
0.26236868 -0.51267612 0.48837033 16711680
0.25755942 -0.51255685 0.48822531 16711680
0.25258312 -0.51336831 0.48864254 16711680
0.24771707 -0.51380605 0.48947933 16711680
0.24181981 -0.51366419 0.48959264 16711680
0.23751494 -0.51415992 0.48985621 16711680
0.23232666 -0.5138694 0.48913553 16711680
0.22731701 -0.51278192 0.48847643 16711680
0.22232883 -0.51246345 0.48804829 16711680
0.21764469 -0.51264429 0.48824146 16711680
0.21264379 -0.51313066 0.48855397 16711680
0.20751919 -0.51303422 0.48850271 16711680
0.20245183 -0.51278186 0.48847643 16711680
0.197423 -0.51252031 0.48841825 16711680
0.19225964 -0.51245004 0.48811653 16711680
0.18764043 -0.51279438 0.48825899 16711680
0.18283555 -0.51321244 0.48873475 16711680
0.17780839 -0.51308256 0.48881152 16711680
0.17235243 -0.51278204 0.48847649 16711680
0.16732207 -0.5131079 0.48753515 16711680
0.16237284 -0.51332784 0.4874886 16711680
0.15758264 -0.51277977 0.48781553 16711680
0.15287746 -0.51256901 0.488161 16711680
0.14764455 -0.51256901 0.48816106 16711680
0.1423924 -0.51259369 0.48803255 16711680
0.13717872 -0.51256901 0.48816106 16711680
0.13215724 -0.51283163 0.48801741 16711680
0.12770906 -0.51348096 0.48779634 16711680
0.12271356 -0.51326936 0.48779711 16711680
0.11752918 -0.51261657 0.48790315 16711680
0.11242768 -0.51296866 0.48790154 16711680
0.10710023 -0.51254469 0.48828968 16711680
0.10250466 -0.51258492 0.48807499 16711680
0.097760089 -0.51296866 0.48790166 16711680
0.092660338 -0.5132792 0.48774585 16711680
0.087428071 -0.51330876 0.48759165 16711680
0.082219765 -0.51264161 0.48777494 16711680
0.077191606 -0.51278192 0.48847643 16711680
0.072423957 -0.51310933 0.48866841 16711680
0.067665704 -0.51319492 0.48882839 16711680
0.062608473 -0.51367664 0.48903295 16711680
0.057633478 -0.51331061 0.48895159 16711680
0.051955298 -0.51317745 0.48892203 16711680
0.047550589 -0.51306653 0.48889729 16711680
0.042975508 -0.5130986 0.48872569 16711680
0.038006701 -0.51334906 0.48874554 16711680
0.032236513 -0.5133599 0.48822281 16711680
0.027347878 -0.51329815 0.4876425 16711680
0.022135373 -0.51332688 0.48748788 16711680
0.017740257 -0.51343346 0.48805431 16711680
0.012871075 -0.51367664 0.48903295 16711680
0.0079716481 -0.51392859 0.48973319 16711680
0.0021890253 -0.51349467 0.48887327 16711680
-0.0028130263 -0.51313066 0.48855397 16711680
-0.0076639503 -0.51323336 0.48868409 16711680
-0.012016252 -0.51336366 0.4890081 16711680
-0.017233141 -0.5136767 0.48903295 16711680
-0.022796899 -0.513614 0.48843339 16711680
-0.027681291 -0.51301414 0.48826554 16711680
-0.032617256 -0.51272708 0.48828551 16711680
-0.03688965 -0.51259977 0.4889237 16711680
-0.041815147 -0.51392859 0.48973319 16711680
-0.047847807 -0.51380605 0.48947927 16711680
-0.052572429 -0.5130986 0.48872563 16711680
-0.057931282 -0.51264244 0.48844537 16711680
-0.062948063 -0.51259327 0.48803237 16711680
-0.067510366 -0.51307058 0.48741642 16711680
-0.072273761 -0.51245046 0.48811683 16711680
-0.077513054 -0.51305085 0.48898348 16711680
-0.082817286 -0.51262975 0.48851416 16711680
-0.087779507 -0.51260602 0.4879683 16711680
-0.092683226 -0.51266134 0.4884496 16711680
-0.097091094 -0.513174 0.48908022 16711680
-0.10259467 -0.51314288 0.48910955 16711680
-0.10749878 -0.51338875 0.48944619 16711680
-0.11819856 -0.51415998 0.48985621 16711680
-0.12301794 -0.51391834 0.48944464 16711680
-0.12714685 -0.51311469 0.4886398 16711680
-0.13217419 -0.51349473 0.48887327 16711680
-0.13739857 -0.51374573 0.48915055 16711680
-0.14276442 -0.51387078 0.48970243 16711680
-0.14762418 -0.51374996 0.48949668 16711680
-0.15235868 -0.5135805 0.4890627 16711680
-0.15715808 -0.51377285 0.48900321 16711680
-0.16282593 -0.51331055 0.48895159 16711680
-0.16806249 -0.51331061 0.48895159 16711680
-0.17154129 -0.51383775 0.48930737 16711680
0.34611702 -0.5176574 0.48995408 16711680
0.34254172 -0.51787859 0.48988304 16711680
0.33747354 -0.51809376 0.48944435 16711680
0.33232084 -0.51783198 0.48990408 16711680
0.32727414 -0.51707429 0.49044761 16711680
0.32265183 -0.51717782 0.49068233 16711680
0.3175582 -0.51731426 0.4906275 16711680
0.31246668 -0.51765919 0.49033257 16711680
0.30734962 -0.51797444 0.48973843 16711680
0.30250436 -0.51810449 0.48942199 16711680
0.29757363 -0.51796818 0.48977056 16711680
0.29267287 -0.51781821 0.49020252 16711680
0.28763753 -0.51797497 0.48973283 16711680
0.28248036 -0.51800293 0.48957494 16711680
0.27736354 -0.51795936 0.48982701 16711680
0.27243811 -0.51795572 0.49023852 16711680
0.26743695 -0.51809657 0.48980352 16711680
0.26257652 -0.51781207 0.48939976 16711680
0.25753236 -0.51814127 0.48880205 16711680
0.25250781 -0.51817983 0.48895362 16711680
0.2474827 -0.51795673 0.48950204 16711680
0.242485 -0.51818657 0.48973218 16711680
0.23741452 -0.51803124 0.48942295 16711680
0.23245066 -0.51787674 0.48903444 16711680
0.22769623 -0.51820952 0.4887906 16711680
0.22262716 -0.51834732 0.48838696 16711680
0.21770033 -0.51778328 0.48831847 16711680
0.21250388 -0.51753354 0.488677 16711680
0.20748481 -0.51737678 0.48884848 16711680
0.20227486 -0.51775026 0.48850074 16711680
0.19750178 -0.51828229 0.48839882 16711680
0.19275525 -0.51829946 0.48865959 16711680
0.18777944 -0.51793271 0.48840162 16711680
0.18238583 -0.51784998 0.48886093 16711680
0.17747633 -0.51766348 0.48898759 16711680
0.17227331 -0.5179556 0.48866543 16711680
0.16757873 -0.5184226 0.48793229 16711680
0.16294971 -0.51863837 0.48803082 16711680
0.15765709 -0.51821458 0.48838785 16711680
0.15247539 -0.51818722 0.48854324 16711680
0.14733194 -0.51811379 0.48895732 16711680
0.14229 -0.51791209 0.48934773 16711680
0.13753214 -0.51814532 0.48877743 16711680
0.13320798 -0.51781124 0.48809108 16711680
0.12767674 -0.51769692 0.48777285 16711680
0.12221207 -0.51804143 0.48795608 16711680
0.11732031 -0.51760364 0.48828945 16711680
0.11183129 -0.51833558 0.48854551 16711680
0.10726523 -0.51793194 0.48873058 16711680
0.10287906 -0.51824605 0.4886311 16711680
0.098120645 -0.51777905 0.48812142 16711680
0.092547566 -0.51769698 0.48777285 16711680
0.087082908 -0.51804143 0.48795608 16711680
0.082014859 -0.51790231 0.48857418 16711680
0.077439472 -0.51799989 0.48871252 16711680
0.0730391 -0.51817846 0.48859522 16711680
0.06782987 -0.51760358 0.48828951 16711680
0.062617972 -0.51751018 0.48880622 16711680
0.057405148 -0.51753342 0.48867694 16711680
0.052076101 -0.51769543 0.48880473 16711680
0.047207646 -0.51835853 0.48875383 16711680
0.042969473 -0.51709372 0.48820719 16711680
0.037829302 -0.51721978 0.48799828 16711680
0.032939509 -0.51729608 0.48789951 16711680
0.027503408 -0.5177201 0.48764357 16711680
0.022309922 -0.51774335 0.48751441 16711680
0.017038219 -0.51864731 0.48831591 16711680
0.012723647 -0.51786643 0.48909548 16711680
0.007841289 -0.51804876 0.48931906 16711680
0.0026729032 -0.51754558 0.48861268 16711680
-0.0024986565 -0.51735729 0.48815855 16711680
-0.0078489333 -0.51773947 0.48856166 16711680
-0.012693316 -0.51770097 0.48874584 16711680
-0.017322935 -0.51746374 0.4883661 16711680
-0.022033587 -0.51702899 0.48798391 16711680
-0.02759786 -0.51783198 0.48818436 16711680
-0.032522455 -0.51811337 0.48895696 16711680
-0.03768412 -0.51815581 0.48990449 16711680
-0.042348981 -0.51787925 0.48988333 16711680
-0.047217123 -0.51803035 0.48942241 16711680
-0.052214816 -0.51795983 0.48907509 16711680
-0.057333224 -0.51807761 0.48916456 16711680
-0.062547565 -0.51807761 0.48916456 16711680
-0.067666218 -0.5182904 0.48871437 16711680
-0.072643802 -0.51827365 0.48931208 16711680
-0.077439308 -0.51790476 0.48976114 16711680
-0.082416594 -0.51782501 0.48983797 16711680
-0.087381065 -0.5180403 0.48937115 16711680
-0.092787102 -0.51793051 0.48999247 16711680
-0.097660735 -0.5181967 0.48967448 16711680
-0.10246322 -0.51799411 0.48962978 16711680
-0.10758974 -0.51783675 0.4901422 16711680
-0.11269338 -0.51776695 0.49092475 16711680
-0.11780825 -0.51770747 0.49041018 16711680
-0.12252198 -0.51794785 0.48988828 16711680
-0.12730084 -0.5176363 0.48849574 16711680
-0.13258618 -0.51747119 0.48821911 16711680
-0.13764343 -0.51805574 0.48886308 16711680
-0.1425063 -0.51779222 0.48958531 16711680
-0.1475067 -0.51798546 0.48968199 16711680
-0.15239738 -0.51820296 0.48920432 16711680
-0.15748683 -0.51806802 0.48921606 16711680
-0.16238613 -0.51803756 0.48938635 16711680
-0.16741376 -0.51795805 0.48983714 16711680
-0.17244363 -0.51775116 0.49016681 16711680
-0.17641437 -0.51734895 0.4904193 16711680
0.34532735 -0.52180642 0.48939165 16711680
0.34207791 -0.52180642 0.48939165 16711680
0.33752868 -0.52180642 0.48939165 16711680
0.33231479 -0.52227712 0.49030265 16711680
0.32729241 -0.52240962 0.49115953 16711680
0.32252771 -0.5226351 0.49146834 16711680
0.3175098 -0.52220654 0.49096343 16711680
0.31262016 -0.52249336 0.49026033 16711680
0.30795863 -0.52209336 0.48954424 16711680
0.30308449 -0.52180642 0.48939165 16711680
0.29723546 -0.52180642 0.48939165 16711680
0.29268622 -0.52180642 0.48939165 16711680
0.28878689 -0.52180642 0.48939165 16711680
0.28098822 -0.52180642 0.48939165 16711680
0.27669895 -0.52203596 0.48951373 16711680
0.27296615 -0.52219492 0.49005124 16711680
0.26799041 -0.52180642 0.48939165 16711680
0.26474094 -0.52180642 0.48939165 16711680
0.25109327 -0.52180642 0.48939165 16711680
0.2471939 -0.52180642 0.48939165 16711680
0.24160485 -0.52203596 0.48951373 16711680
0.23744556 -0.52180642 0.48939165 16711680
0.23419611 -0.52180642 0.48939165 16711680
0.14516115 -0.52180642 0.48939165 16711680
0.1425616 -0.52180642 0.48939165 16711680
-0.033775277 -0.52218896 0.48959509 16711680
-0.037092179 -0.52213019 0.48994139 16711680
-0.042267174 -0.52203596 0.48951373 16711680
-0.047639616 -0.52180642 0.48939165 16711680
-0.052405469 -0.52180642 0.48939165 16711680
-0.057344638 -0.52203596 0.48951373 16711680
-0.06172058 -0.52218896 0.48959509 16711680
-0.067352951 -0.52180648 0.48939165 16711680
-0.072909206 -0.52224791 0.48995003 16711680
-0.077460051 -0.52210081 0.49011448 16711680
-0.082950324 -0.52180648 0.48939165 16711680
-0.087499559 -0.52180648 0.48939165 16711680
-0.092048779 -0.52180648 0.48939165 16711680
-0.097247899 -0.52180648 0.48939165 16711680
-0.10244703 -0.52180648 0.48939165 16711680
-0.10764615 -0.52180648 0.48939165 16711680
-0.11275654 -0.52146286 0.49048313 16711680
-0.11673304 -0.52121663 0.49039933 16711680
-0.12141718 -0.52174765 0.48973796 16711680
-0.13905752 -0.52218902 0.48959509 16711680
-0.14248188 -0.52357966 0.49085715 16711680
-0.1474102 -0.52344888 0.49099782 16711680
-0.15225202 -0.52275395 0.49051324 16711680
-0.15687038 -0.52255195 0.48991391 16711680
-0.16260549 -0.52251279 0.4901447 16711680
-0.16766872 -0.52286625 0.4905214 16711680
-0.17280401 -0.52275556 0.49055699 16711680
-0.17610593 -0.52208865 0.49067435 16711680
-0.14403999 -0.52639699 0.49183252 16711680
-0.14598966 -0.52639699 0.49183252 16711680
0.15123516 -0.49802133 0.48693803 16711680
0.14925042 -0.49802133 0.48693803 16711680
0.3424342 -0.50269449 0.48942277 16711680
0.33718422 -0.5023753 0.4888756 16711680
0.33204305 -0.50206566 0.48847064 16711680
0.32736203 -0.50232041 0.48809126 16711680
0.32277179 -0.50212377 0.48819265 16711680
0.31835899 -0.50183266 0.48871288 16711680
0.31266272 -0.50269449 0.48942277 16711680
0.30725127 -0.50245512 0.48901239 16711680
0.30228049 -0.5024451 0.48853514 16711680
0.297773 -0.50275105 0.48844615 16711680
0.29347664 -0.50269449 0.48942277 16711680
0.28222966 -0.50240242 0.4892675 16711680
0.27722752 -0.50236267 0.48823962 16711680
0.27255881 -0.50232065 0.48809138 16711680
0.26810688 -0.50264746 0.48875055 16711680
0.26436675 -0.50269449 0.48942277 16711680
0.25642771 -0.50269449 0.48942277 16711680
0.25245816 -0.50269449 0.48942277 16711680
0.24782705 -0.50269449 0.48942277 16711680
0.24253432 -0.50269449 0.48942277 16711680
0.23724164 -0.50269449 0.48942277 16711680
0.23261052 -0.50269449 0.48942277 16711680
0.22731781 -0.50269449 0.48942277 16711680
0.2225305 -0.50279993 0.48891255 16711680
0.21739398 -0.50269449 0.48942277 16711680
0.21200496 -0.50198591 0.48866853 16711680
0.20752926 -0.50211746 0.48778352 16711680
0.20245992 -0.50182134 0.48737296 16711680
0.19738692 -0.5021615 0.48794022 16711680
0.1922134 -0.50186849 0.4881123 16711680
0.18738163 -0.50232065 0.48809138 16711680
0.18261302 -0.50199646 0.487919 16711680
0.17754638 -0.50189358 0.48768547 16711680
0.17219499 -0.50232065 0.48809138 16711680
0.16755024 -0.50292748 0.48828825 16711680
0.16275379 -0.50277358 0.48807088 16711680
0.15749159 -0.50203186 0.48774901 16711680
0.15232632 -0.50181097 0.48742405 16711680
0.14727858 -0.50160134 0.4873943 16711680
0.14271106 -0.50205439 0.48735031 16711680
0.13793349 -0.50190419 0.48763153 16711680
0.13278496 -0.50204074 0.48810437 16711680
0.12731071 -0.502294 0.48821875 16711680
0.12215234 -0.50219005 0.4880974 16711680
0.11778799 -0.50208437 0.48837772 16711680
0.11281922 -0.50218999 0.48809746 16711680
0.10747064 -0.5017792 0.48757705 16711680
0.10229462 -0.50222313 0.48763981 16711680
0.097487509 -0.50197607 0.48819128 16711680
0.092824385 -0.50245148 0.48808542 16711680
0.08767806 -0.50232065 0.48809138 16711680
0.082527809 -0.50243729 0.48815343 16711680
0.076962605 -0.50270796 0.48838452 16711680
0.072498798 -0.5022158 0.48860189 16711680
0.067874834 -0.50213671 0.48898467 16711680
0.062582351 -0.50269455 0.48942277 16711680
0.057006106 -0.50219381 0.48915657 16711680
0.051659483 -0.50212103 0.48833373 16711680
0.047400463 -0.50232065 0.48809138 16711680
0.043161105 -0.5022577 0.48839769 16711680
0.037883054 -0.50230509 0.4892157 16711680
0.032149289 -0.50269455 0.48942277 16711680
0.028179754 -0.50269455 0.48942277 16711680
0.0010546446 -0.50269455 0.48942277 16711680
-0.0022533014 -0.50269455 0.48942277 16711680
-0.0075460002 -0.50269455 0.48942277 16711680
-0.012177117 -0.50269455 0.48942277 16711680
-0.028716825 -0.50269455 0.48942277 16711680
-0.03268636 -0.50269455 0.48942277 16711680
-0.037979059 -0.50269455 0.48942277 16711680
-0.042504475 -0.50221574 0.48860201 16711680
-0.047131047 -0.5022158 0.48860195 16711680
-0.052418552 -0.5022158 0.48860189 16711680
-0.057706058 -0.50221574 0.48860201 16711680
-0.06291832 -0.50272441 0.48830608 16711680
-0.067488998 -0.50232041 0.48809126 16711680
-0.07235904 -0.50202888 0.48793623 16711680
-0.07732366 -0.50237322 0.48783615 16711680
-0.08253102 -0.50242549 0.48758087 16711680
-0.087669104 -0.50308722 0.48808709 16711680
-0.092416331 -0.50304145 0.48836145 16711680
-0.097586066 -0.50257701 0.48841652 16711680
-0.10233527 -0.50277877 0.48843798 16711680
-0.107031 -0.50245512 0.48901239 16711680
-0.11207697 -0.50269455 0.48942277 16711680
0.35037324 -0.5038628 0.49004397 16711680
0.34736398 -0.50638497 0.48965648 16711680
0.34238625 -0.50663519 0.48944184 16711680
0.33732706 -0.50674814 0.48887256 16711680
0.3324787 -0.50685525 0.48837903 16711680
0.32754347 -0.50753736 0.48799607 16711680
0.32247752 -0.5069195 0.48833129 16711680
0.3177501 -0.50660402 0.48923644 16711680
0.31257719 -0.5065642 0.48944172 16711680
0.30756289 -0.50669712 0.4891527 16711680
0.30263689 -0.50681585 0.48853108 16711680
0.29724669 -0.50703245 0.48852047 16711680
0.29255712 -0.50655305 0.48949245 16711680
0.2875368 -0.50649649 0.48977533 16711680
0.28252697 -0.5066967 0.48915246 16711680
0.27751613 -0.5068661 0.48860088 16711680
0.27256978 -0.50753963 0.48851421 16711680
0.26748252 -0.50693023 0.48827741 16711680
0.26229262 -0.50666481 0.48862162 16711680
0.25744587 -0.5067203 0.48903176 16711680
0.2525692 -0.50664431 0.4890314 16711680
0.24757999 -0.50656152 0.48908803 16711680
0.24253847 -0.50665462 0.48898014 16711680
0.23773962 -0.50644934 0.48965749 16711680
0.23277602 -0.50650239 0.48974857 16711680
0.22760211 -0.50661725 0.48882619 16711680
0.22254947 -0.50628275 0.48842844 16711680
0.21747679 -0.50683635 0.48840621 16711680
0.2125375 -0.5068661 0.48860088 16711680
0.20711271 -0.50751758 0.48788181 16711680
0.20229359 -0.50739741 0.48774168 16711680
0.19779056 -0.50762832 0.48796901 16711680
0.19251931 -0.50691944 0.48833117 16711680
0.18751183 -0.50742793 0.48832962 16711680
0.18225308 -0.50742823 0.48832974 16711680
0.17733562 -0.50739747 0.48774162 16711680
0.17273268 -0.50755048 0.48771724 16711680
0.16769135 -0.50694638 0.48753086 16711680
0.16243675 -0.50694638 0.48753092 16711680
0.15718219 -0.50694638 0.48753086 16711680
0.15233292 -0.50681669 0.48753741 16711680
0.14778277 -0.507083 0.48743191 16711680
0.14268082 -0.50643551 0.4868817 16711680
0.13726228 -0.50731677 0.48751208 16711680
0.1321649 -0.50706625 0.48834953 16711680
0.12727886 -0.50731188 0.48799488 16711680
0.12262937 -0.50706917 0.48755839 16711680
0.11769574 -0.50706619 0.48834959 16711680
0.11251469 -0.50727874 0.48812959 16711680
0.10744725 -0.50728732 0.48765823 16711680
0.10200911 -0.50694638 0.48753086 16711680
0.097310498 -0.50688326 0.4878405 16711680
0.092985526 -0.50705099 0.48799309 16711680
0.087559015 -0.50694638 0.48753086 16711680
0.082304433 -0.50694638 0.48753086 16711680
0.077052258 -0.5075047 0.48794571 16711680
0.072466671 -0.50673985 0.48855355 16711680
0.067860626 -0.50672621 0.4886218 16711680
0.062592499 -0.50663435 0.48908278 16711680
0.057325438 -0.5066753 0.48887786 16711680
0.052212082 -0.50699878 0.48869124 16711680
0.047469754 -0.50739014 0.48852184 16711680
0.042745352 -0.50685537 0.48865476 16711680
0.037555173 -0.50662464 0.48913416 16711680
0.032284826 -0.50662398 0.48913375 16711680
0.02725153 -0.5068655 0.48899791 16711680
0.022689737 -0.50636125 0.48930714 16711680
0.017766058 -0.50657243 0.48938951 16711680
0.012446586 -0.50648171 0.48985091 16711680
0.0074140131 -0.50629973 0.49000731 16711680
0.0022786483 -0.50674909 0.4896467 16711680
-0.002207838 -0.50640959 0.48913303 16711680
-0.0072397739 -0.50663435 0.48908278 16711680
-0.012609713 -0.50650233 0.48974863 16711680
-0.017786272 -0.50661957 0.48984072 16711680
-0.02251821 -0.50648367 0.48983857 16711680
-0.027292512 -0.5066033 0.48923597 16711680
-0.032304481 -0.50658882 0.48863229 16711680
-0.037433073 -0.50674653 0.48851946 16711680
-0.042607948 -0.50685561 0.48865488 16711680
-0.047493353 -0.50677055 0.48875865 16711680
-0.052367605 -0.50661778 0.48882642 16711680
-0.057345733 -0.5065676 0.48874012 16711680
-0.062253162 -0.50732815 0.48818681 16711680
-0.067451075 -0.50694644 0.48753086 16711680
-0.072891444 -0.5073694 0.4879823 16711680
-0.077828333 -0.50764215 0.48790082 16711680
-0.082205236 -0.50725335 0.4875997 16711680
-0.086985871 -0.50683475 0.48750582 16711680
-0.092410326 -0.50694638 0.48753092 16711680
-0.097678483 -0.50751764 0.48788175 16711680
-0.10276732 -0.50744575 0.48802289 16711680
-0.10745737 -0.50652361 0.48856434 16711680
-0.11216192 -0.5067029 0.48914739 16711680
-0.11726297 -0.50563413 0.49023071 16711680
-0.12251797 -0.50659651 0.4902778 16711680
-0.12764616 -0.50664496 0.48979113 16711680
-0.13251851 -0.50720835 0.49008617 16711680
-0.13718374 -0.5064466 0.49085149 16711680
-0.14237157 -0.50698221 0.49105546 16711680
-0.14759368 -0.5068844 0.49108431 16711680
-0.15256706 -0.50698221 0.49105546 16711680
-0.15780775 -0.50654083 0.49074712 16711680
-0.16245484 -0.50651193 0.48969713 16711680
-0.16737498 -0.50648206 0.48948613 16711680
-0.17218038 -0.50691247 0.49018446 16711680
-0.17721474 -0.50694072 0.49145409 16711680
-0.18022054 -0.50736773 0.49190757 16711680
0.34681785 -0.51107198 0.48934701 16711680
0.34222314 -0.51107198 0.48934701 16711680
0.336972 -0.51107198 0.48934695 16711680
0.33237728 -0.51049244 0.4890388 16711680
0.32750127 -0.51098919 0.48930296 16711680
0.32253146 -0.51107198 0.48934701 16711680
0.31706151 -0.51126516 0.48944971 16711680
0.31202921 -0.51165152 0.48965511 16711680
0.30759859 -0.51150668 0.4895781 16711680
0.30323359 -0.51072431 0.48916206 16711680
0.29693225 -0.51136178 0.48950109 16711680
0.29233754 -0.51165158 0.48965517 16711680
0.28730524 -0.51126516 0.48944971 16711680
0.28230417 -0.51132035 0.48947904 16711680
0.27767819 -0.51126516 0.48944971 16711680
0.27282488 -0.51154613 0.48959908 16711680
0.26870751 -0.51049244 0.4890388 16711680
0.2525166 -0.5108788 0.48924425 16711680
0.2474405 -0.51141971 0.4895319 16711680
0.24267076 -0.51126516 0.48944971 16711680
0.23715328 -0.51141226 0.48987636 16711680
0.23279366 -0.51132035 0.48947904 16711680
0.22932418 -0.51049244 0.4890388 16711680
0.21553999 -0.51049244 0.4890388 16711680
0.21225806 -0.51049244 0.4890388 16711680
0.20722574 -0.51049244 0.4890388 16711680
0.203725 -0.51049244 0.4890388 16711680
0.18600249 -0.5104925 0.4890388 16711680
0.18206416 -0.5104925 0.4890388 16711680
0.17746945 -0.5104925 0.4890388 16711680
0.17418748 -0.5104925 0.4890388 16711680
0.075729132 -0.5104925 0.4890388 16711680
0.072447188 -0.5104925 0.4890388 16711680
0.068246298 -0.51072431 0.48916206 16711680
0.06260135 -0.51107204 0.48934701 16711680
0.056912642 -0.5108788 0.48924425 16711680
0.052492954 -0.51072431 0.48916206 16711680
0.047504395 -0.5104925 0.4890388 16711680
0.042909674 -0.5104925 0.4890388 16711680
0.03722097 -0.5108788 0.48924425 16711680
0.03306384 -0.5104925 0.4890388 16711680
0.016654111 -0.5104925 0.4890388 16711680
0.012715776 -0.51107204 0.48934695 16711680
0.0070487782 -0.51109892 0.48997113 16711680
0.0024948567 -0.51098925 0.48930296 16711680
-0.0023811758 -0.5104925 0.4890388 16711680
-0.0069758967 -0.5104925 0.4890388 16711680
-0.012508325 -0.51098925 0.48930296 16711680
-0.017478116 -0.51107204 0.48934695 16711680
-0.022291645 -0.51087886 0.48924425 16711680
-0.026667573 -0.5104925 0.4890388 16711680
-0.03870137 -0.51087886 0.48924419 16711680
-0.042599916 -0.51154619 0.48959914 16711680
-0.047409467 -0.51141977 0.4895319 16711680
-0.052923128 -0.5104925 0.4890388 16711680
-0.056205079 -0.5104925 0.4890388 16711680
-0.077865928 -0.5104925 0.4890388 16711680
-0.081147879 -0.5104925 0.4890388 16711680
-0.097995192 -0.51087886 0.48924425 16711680
-0.10241488 -0.51072431 0.48916206 16711680
-0.10766599 -0.51095617 0.48928532 16711680
-0.11248633 -0.51183057 0.49005231 16711680
-0.11734399 -0.51126164 0.49020287 16711680
-0.12232853 -0.51114607 0.49006584 16711680
-0.12775151 -0.5104925 0.4890388 16711680
-0.13300261 -0.51107204 0.48934695 16711680
-0.13755621 -0.51017046 0.49010304 16711680
-0.14244336 -0.51077068 0.49024382 16711680
-0.14739433 -0.51064974 0.48987743 16711680
-0.15264979 -0.51031029 0.48998013 16711680
-0.15786204 -0.51054811 0.48976538 16711680
-0.16227756 -0.51095617 0.48928532 16711680
-0.16713484 -0.51087886 0.48924425 16711680
-0.17309988 -0.51145661 0.49000451 16711680
-0.17731853 -0.51117921 0.49093625 16711680
-0.11265454 -0.51512897 0.49150404 16711680
-0.11528011 -0.51512897 0.49150404 16711680
0.33179769 -0.49220225 0.48950681 16711680
0.32712114 -0.4919073 0.48934999 16711680
0.32246777 -0.49186069 0.48851624 16711680
0.31752202 -0.49172693 0.48868778 16711680
0.31375933 -0.49220225 0.48950681 16711680
0.29772526 -0.49220225 0.48950681 16711680
0.29304868 -0.49220225 0.48950681 16711680
0.27668053 -0.4919073 0.48934999 16711680
0.27233797 -0.49161237 0.48919317 16711680
0.26832944 -0.49220225 0.48950681 16711680
0.2228995 -0.49220225 0.48950681 16711680
0.21755482 -0.49220225 0.48950681 16711680
0.21154201 -0.49220225 0.48950681 16711680
0.20753351 -0.49220225 0.48950681 16711680
0.20275681 -0.49169829 0.4888142 16711680
0.19760066 -0.49121308 0.48856899 16711680
0.19238238 -0.49176216 0.48894921 16711680
0.1874909 -0.49220225 0.48950681 16711680
0.1828143 -0.49220225 0.48950681 16711680
0.17813767 -0.49220225 0.48950681 16711680
0.16076741 -0.49220225 0.48950681 16711680
0.15705314 -0.49139643 0.48839876 16711680
0.15232947 -0.49111146 0.48790756 16711680
0.14775848 -0.49131787 0.48810992 16711680
0.14240134 -0.49135011 0.4886007 16711680
0.13731396 -0.49172693 0.48868784 16711680
0.13230786 -0.49143231 0.48853114 16711680
0.12767474 -0.49182761 0.48866042 16711680
0.12263033 -0.49172696 0.48868778 16711680
0.11727385 -0.49117604 0.48820612 16711680
0.11278547 -0.49128485 0.4884527 16711680
0.10794671 -0.49172696 0.48868778 16711680
0.10260721 -0.49172699 0.48868778 16711680
0.09726771 -0.49172696 0.48868778 16711680
0.092595652 -0.49172699 0.48868778 16711680
0.088022031 -0.49179488 0.48880479 16711680
0.083002061 -0.49196631 0.48938134 16711680
0.076855659 -0.49196631 0.48938134 16711680
0.072572529 -0.49172696 0.48868784 16711680
0.067900978 -0.49109909 0.48854271 16711680
0.062825836 -0.49125844 0.489005 16711680
0.057213902 -0.49161237 0.48919317 16711680
0.052537292 -0.49220228 0.48950681 16711680
0.047860682 -0.49220228 0.48950681 16711680
0.042515986 -0.49220228 0.48950681 16711680
0.03739398 -0.49180901 0.48929772 16711680
0.032494675 -0.49220228 0.48950681 16711680
