# .PCD v0.7 - Point Cloud Data file format
VERSION 0.7
FIELDS x y z rgba
SIZE 4 4 4 4
TYPE F F F U
COUNT 1 1 1 1
WIDTH 1176
HEIGHT 1
VIEWPOINT 0 0 0 1 0 0 0
POINTS 1176
DATA ascii
-0.054290954 -0.26353091 0.48392421 65280
0.16767134 -0.26519647 0.483605 65280
0.1708304 -0.26735115 0.48415816 65280
-0.052325834 -0.26257688 0.48669669 65280
-0.047603227 -0.2611019 0.4863483 65280
-0.0428227 -0.26051533 0.4859052 65280
-0.037769452 -0.259725 0.48594785 65280
0.16314948 -0.26057002 0.48549861 65280
0.16662531 -0.26278985 0.48658344 65280
-0.037185308 -0.25939453 0.48838875 65280
-0.032428466 -0.25834972 0.48862067 65280
-0.027519546 -0.25708732 0.48848286 65280
-0.022927657 -0.25601849 0.48905125 65280
-0.018077407 -0.25481129 0.488334 65280
-0.013317303 -0.2541883 0.48775923 65280
0.15792771 -0.25596043 0.48766646 65280
0.16228083 -0.25765795 0.4894253 65280
-0.021359706 -0.2547614 0.49198478 65280
-0.017241368 -0.25395301 0.49147081 65280
-0.012483267 -0.25307104 0.49146783 65280
-0.0076040663 -0.25241613 0.49058914 65280
-0.0025685446 -0.25170609 0.49077788 65280
0.0020306963 -0.25091574 0.49017885 65280
0.0060445969 -0.25038931 0.4897792 65280
0.14738205 -0.25081968 0.48983347 65280
0.15272881 -0.25228679 0.49103543 65280
0.1575554 -0.25312921 0.49197173 65280
0.16227078 -0.25320235 0.49281365 65280
0.22423002 -0.25221029 0.49334121 65280
0.22567467 -0.25221029 0.49334121 65280
0.23217557 -0.25221029 0.49334121 65280
0.2357872 -0.25221029 0.49334121 65280
0.25257924 -0.2526269 0.49279609 65280
0.2572245 -0.25262046 0.49255684 65280
-0.0069132508 -0.25093475 0.49401945 65280
-0.0022176413 -0.25050265 0.49396607 65280
0.0027612536 -0.24955243 0.49384835 65280
0.0075105862 -0.24830657 0.49362364 65280
0.012535353 -0.24733582 0.49329042 65280
0.017553417 -0.24708666 0.49279362 65280
0.022607451 -0.24733582 0.49329042 65280
0.027646316 -0.24738556 0.49338976 65280
0.032354705 -0.24682862 0.49291831 65280
0.036663096 -0.24589472 0.49254647 65280
0.1389485 -0.24574606 0.49224806 65280
0.14271198 -0.24719416 0.49204439 65280
0.14708674 -0.24804737 0.49310085 65280
0.15230659 -0.24834836 0.49369577 65280
0.15730125 -0.24827364 0.49354678 65280
0.16233715 -0.2482646 0.49352804 65280
0.16771381 -0.24828902 0.49394512 65280
0.1723793 -0.2480868 0.49419528 65280
0.17735954 -0.24801962 0.49432355 65280
0.18250017 -0.24778031 0.49446121 65280
0.18751936 -0.24810907 0.49450254 65280
0.1925015 -0.24752571 0.49366134 65280
0.19772682 -0.24783313 0.49362999 65280
0.20237055 -0.24810413 0.49366385 65280
0.20725481 -0.24840304 0.49334309 65280
0.21242584 -0.24807177 0.49360016 65280
0.21750391 -0.24859604 0.4937259 65280
0.22253561 -0.24810413 0.49366385 65280
0.22753291 -0.24853134 0.49359855 65280
0.23240747 -0.24775827 0.49283934 65280
0.23766907 -0.24835008 0.49369487 65280
0.24235222 -0.24811397 0.49332964 65280
0.24760701 -0.2480785 0.4930464 65280
0.25243706 -0.24764279 0.49229133 65280
0.2564894 -0.2478366 0.49214318 65280
-0.017748091 -0.24328148 0.49808875 65280
-0.012398844 -0.24370386 0.49763763 65280
-0.0075502875 -0.24398546 0.49733686 65280
-0.0029404762 -0.24360037 0.4979192 65280
0.0024769446 -0.24328148 0.49808875 65280
0.0077117588 -0.24434265 0.49738288 65280
0.012568307 -0.24415238 0.49658751 65280
0.017606502 -0.24401802 0.49631292 65280
0.022647344 -0.2439692 0.49621296 65280
0.027702859 -0.2440668 0.49641281 65280
0.032724787 -0.2438951 0.49606368 65280
0.037703373 -0.24347721 0.49521625 65280
0.042107161 -0.24248137 0.49440861 65280
0.047636826 -0.24152495 0.49449244 65280
0.052656576 -0.24152495 0.49449244 65280
0.12723573 -0.24194705 0.494268 65280
0.13368972 -0.24279128 0.49381912 65280
0.13783301 -0.24265058 0.49389395 65280
0.14235307 -0.24288961 0.4940185 65280
0.14728926 -0.24295774 0.49445143 65280
0.15229563 -0.24331661 0.49455917 65280
0.15747316 -0.24297599 0.49419284 65280
0.16250551 -0.24298824 0.49421772 65280
0.16757096 -0.24304958 0.49434251 65280
0.17255254 -0.24298824 0.49421778 65280
0.177568 -0.24297602 0.4941929 65280
0.1825636 -0.24293917 0.49411795 65280
0.18738522 -0.2434106 0.49399316 65280
0.19249251 -0.24355109 0.49341515 65280
0.19709341 -0.24370944 0.49351966 65280
0.20281887 -0.24355109 0.49341515 65280
0.20755178 -0.24405763 0.49314579 65280
0.21257152 -0.24342445 0.49348247 65280
0.21759127 -0.24342445 0.49348247 65280
0.22261102 -0.24405763 0.49314579 65280
0.22763079 -0.24405763 0.49314579 65280
0.23265052 -0.24405763 0.49314579 65280
0.23767029 -0.24405763 0.49314579 65280
0.25631508 -0.24405763 0.49314579 65280
-0.12248489 -0.2381793 0.50080162 65280
-0.11742863 -0.2381793 0.50080162 65280
-0.11237237 -0.2381793 0.50080162 65280
-0.10707533 -0.2381793 0.50080162 65280
-0.10225985 -0.2381793 0.50080162 65280
-0.095036626 -0.2381793 0.50080162 65280
-0.092869654 -0.2381793 0.50080162 65280
-0.05675352 -0.2381793 0.50080162 65280
-0.052396577 -0.23870957 0.50023651 65280
-0.047320575 -0.23860212 0.50001055 65280
-0.04226888 -0.23860212 0.50001049 65280
-0.037015613 -0.23890612 0.49992973 65280
-0.032586869 -0.23928098 0.49942306 65280
-0.027476447 -0.2392634 0.49852639 65280
-0.022708304 -0.23908429 0.49767783 65280
-0.017668001 -0.23901205 0.49752742 65280
-0.012638159 -0.23908371 0.49767813 65280
-0.0076025138 -0.23906495 0.49764094 65280
-0.0025693977 -0.23919158 0.49790391 65280
0.0024683282 -0.23922771 0.49797899 65280
0.0075046569 -0.23919158 0.49790391 65280
0.012530498 -0.23898362 0.49747181 65280
0.017410859 -0.23884887 0.49673906 65280
0.022317244 -0.23960853 0.49601474 65280
0.027607925 -0.23942834 0.49673983 65280
0.032768376 -0.23883462 0.49682903 65280
0.037654508 -0.23872219 0.49692655 65280
0.042650733 -0.23854983 0.4965699 65280
0.047694784 -0.23864901 0.49677673 65280
0.052691992 -0.23852207 0.49651387 65280
0.057676326 -0.23835914 0.4961758 65280
0.062696084 -0.23808777 0.49632007 65280
0.067572407 -0.23797923 0.4963778 65280
0.071731634 -0.23721941 0.49678177 65280
0.084926412 -0.2364596 0.49718574 65280
0.08779484 -0.23857015 0.49606353 65280
0.091918208 -0.23915057 0.49575493 65280
0.13799237 -0.2402586 0.49516577 65280
0.142295 -0.2402586 0.49516577 65280
0.14516343 -0.2402586 0.49516577 65280
0.16524243 -0.2402586 0.49516577 65280
0.17313062 -0.2402586 0.49516577 65280
-0.15137781 -0.23435265 0.50283629 65280
-0.1477662 -0.23435265 0.50283629 65280
-0.14270993 -0.23435265 0.50283629 65280
-0.13765366 -0.23435265 0.50283629 65280
-0.13217705 -0.23456579 0.50243986 65280
-0.12742604 -0.23509753 0.50187397 65280
-0.12252959 -0.23503464 0.50122786 65280
-0.11743221 -0.23535877 0.50127172 65280
-0.11243714 -0.23503464 0.50122786 65280
-0.10782147 -0.23515691 0.50115025 65280
-0.10276487 -0.23513313 0.50109994 65280
-0.097749144 -0.23520441 0.5012508 65280
-0.092673652 -0.23513316 0.5011 65280
-0.087725051 -0.23539266 0.50165409 65280
-0.082737982 -0.23493752 0.50238371 65280
-0.077700876 -0.2349904 0.50249714 65280
-0.072595932 -0.23483178 0.50215679 65280
-0.067527361 -0.23477894 0.50204337 65280
-0.062475663 -0.23477893 0.50204337 65280
-0.057372674 -0.23520389 0.5012511 65280
-0.052418146 -0.23485547 0.50020081 65280
-0.047419854 -0.23435368 0.49977782 65280
-0.042822264 -0.23449479 0.49974057 65280
-0.037773538 -0.23438908 0.49951372 65280
-0.032719392 -0.2342115 0.49913612 65280
-0.028210506 -0.23450871 0.49850619 65280
-0.022639697 -0.23519327 0.49785906 65280
-0.016185733 -0.23519327 0.49785906 65280
-0.012313352 -0.23468673 0.49812841 65280
-0.0075804438 -0.2345601 0.49819574 65280
-0.0025606914 -0.2345601 0.49819574 65280
0.002766392 -0.23465055 0.49814764 65280
0.0074788122 -0.23456009 0.49819574 65280
0.012498563 -0.23456009 0.49819574 65280
0.016084101 -0.23519327 0.49785906 65280
0.043334182 -0.23519327 0.49785906 65280
0.047923669 -0.23468673 0.49812841 65280
0.05265658 -0.2345601 0.49819574 65280
0.05767633 -0.23519327 0.49785906 65280
0.060544759 -0.23519327 0.49785906 65280
-0.2821182 -0.22925048 0.50554919 65280
-0.27740365 -0.22973803 0.50512815 65280
-0.27248189 -0.22968136 0.50475377 65280
-0.26743016 -0.22968136 0.50475377 65280
-0.26245704 -0.22975031 0.50490582 65280
-0.2578077 -0.22946876 0.50486684 65280
-0.25394762 -0.22925048 0.50554919 65280
-0.23661189 -0.22925048 0.50554919 65280
-0.23227794 -0.22925048 0.50554919 65280
-0.22711915 -0.23010366 0.50481236 65280
-0.22228935 -0.23015743 0.50406021 65280
-0.2176085 -0.22985889 0.5037533 65280
-0.21281569 -0.23049928 0.5039413 65280
-0.20761518 -0.23046501 0.50386518 65280
-0.20271838 -0.2307117 0.50382841 65280
-0.1976658 -0.23024619 0.50345159 65280
-0.19236661 -0.23018953 0.5038144 65280
-0.18740955 -0.22994259 0.50393534 65280
-0.18257353 -0.23028044 0.50398219 65280
-0.17773093 -0.23018391 0.50443506 65280
-0.17243695 -0.2305291 0.50456035 65280
-0.1672589 -0.23069739 0.50390857 65280
-0.16239618 -0.23086336 0.50347185 65280
-0.15743031 -0.23051056 0.50309944 65280
-0.15253443 -0.23024951 0.50292718 65280
-0.14753719 -0.23054555 0.50224698 65280
-0.14227708 -0.23005848 0.50224459 65280
-0.13755852 -0.23031837 0.50228065 65280
-0.1325023 -0.22987069 0.50204819 65280
-0.12767845 -0.23004889 0.50162411 65280
-0.12252182 -0.23051283 0.50138593 65280
-0.11736897 -0.23026814 0.50085527 65280
-0.11234616 -0.23026815 0.50085533 65280
-0.10734476 -0.23031464 0.50095648 65280
-0.10218751 -0.23019132 0.5012157 65280
-0.097307257 -0.22970457 0.50134379 65280
-0.092313796 -0.22978312 0.50151432 65280
-0.087350868 -0.22994862 0.50187469 65280
-0.082383677 -0.23012352 0.50225353 65280
-0.07748016 -0.2304623 0.50196022 65280
-0.072458737 -0.23070116 0.50148314 65280
-0.067496993 -0.23037928 0.50143808 65280
-0.062399317 -0.23070116 0.50148314 65280
-0.057410467 -0.23025326 0.50116527 65280
-0.052806169 -0.23097149 0.50067019 65280
-0.047738455 -0.2307611 0.50021571 65280
-0.042718705 -0.23076108 0.50021571 65280
-0.037698954 -0.23076108 0.50021571 65280
-0.033635344 -0.23097214 0.50010347 65280
-0.30234325 -0.22542383 0.50758386 65280
-0.29710814 -0.22528823 0.50727844 65280
-0.29198104 -0.22585265 0.50712931 65280
-0.28703076 -0.22596647 0.50658745 65280
-0.28244674 -0.22639933 0.50579101 65280
-0.27750021 -0.22588263 0.50507468 65280
-0.2724134 -0.22584119 0.50498354 65280
-0.26742208 -0.22550932 0.50459379 65280
-0.26240987 -0.22584836 0.50468123 65280
-0.25740367 -0.22555022 0.50468528 65280
-0.25253835 -0.22608715 0.50553232 65280
-0.2477591 -0.22633132 0.50647211 65280
-0.24225929 -0.2261444 0.50644565 65280
-0.23734123 -0.22601894 0.5053798 65280
-0.23263261 -0.22605063 0.5050987 65280
-0.22742729 -0.22547317 0.50415993 65280
-0.22278631 -0.22547776 0.50373268 65280
-0.21750855 -0.22602135 0.5033831 65280
-0.2124736 -0.22530903 0.50379419 65280
-0.207508 -0.2255884 0.50409877 65280
-0.20259206 -0.22537521 0.50350416 65280
-0.19797245 -0.22601232 0.50274068 65280
-0.19217379 -0.22597536 0.50294906 65280
-0.18706913 -0.22595266 0.50348026 65280
-0.18196288 -0.22583491 0.50396758 65280
-0.17760208 -0.22564119 0.50418389 65280
-0.17260401 -0.22532071 0.50413799 65280
-0.1675425 -0.22564116 0.50418383 65280
-0.16268662 -0.2253859 0.50357705 65280
-0.15788665 -0.2261152 0.50296909 65280
-0.15387034 -0.22632891 0.50257236 65280
-0.13594267 -0.22632891 0.50257236 65280
-0.13307424 -0.22632891 0.50257236 65280
-0.090047792 -0.22632891 0.50257236 65280
-0.087896466 -0.22632891 0.50257236 65280
-0.31239292 -0.22182985 0.50864536 65280
-0.30733272 -0.22166966 0.50797546 65280
-0.30255353 -0.22133501 0.50720966 65280
-0.29726008 -0.22177769 0.50643378 65280
-0.2925005 -0.22180201 0.50648946 65280
-0.28753084 -0.22151543 0.50616133 65280
-0.28286153 -0.22177532 0.50598454 65280
-0.27733949 -0.22199787 0.50515831 65280
-0.27230275 -0.22135346 0.5054695 65280
-0.26773301 -0.22217521 0.5049696 65280
-0.26215357 -0.22252989 0.5045923 65280
-0.25785092 -0.22252989 0.5045923 65280
-0.25294513 -0.22263107 0.50482166 65280
-0.247786 -0.222334 0.50566727 65280
-0.24251376 -0.22178262 0.50612217 65280
-0.23798743 -0.22209905 0.50538772 65280
-0.23275216 -0.22252989 0.5045923 65280
-0.22916663 -0.22252989 0.5045923 65280
-0.31154293 -0.21719526 0.50810838 65280
-0.30747476 -0.21695802 0.50755495 65280
-0.30374578 -0.21746455 0.50728559 65280
-0.0073093814 -0.29960987 0.47125304 65280
-0.0025884397 -0.2968238 0.4722625 65280
0.0017653657 -0.29753518 0.47339436 65280
0.0078680497 -0.29900885 0.47219557 65280
0.012175701 -0.29957381 0.4716498 65280
0.032505866 -0.2993173 0.47169173 65280
0.043728128 -0.29866812 0.46977171 65280
0.046335943 -0.2994968 0.47197378 65280
0.16346614 -0.29970014 0.46960053 65280
0.16728699 -0.29899716 0.47163543 65280
0.17070894 -0.29862335 0.47375959 65280
-0.088130414 -0.29280552 0.47402155 65280
0.011186356 -0.29536581 0.47266015 65280
0.026361093 -0.29227886 0.47316894 65280
0.030868812 -0.29642826 0.47436038 65280
0.048926041 -0.29563144 0.47308528 65280
0.052630261 -0.29607415 0.47379372 65280
0.16914412 -0.29395345 0.47312805 65280
0.17164809 -0.29546475 0.47487277 65280
0.16963914 -0.29100102 0.47384837 65280
0.17243049 -0.29012769 0.47657785 65280
0.17303261 -0.28543133 0.4786219 65280
0.17523482 -0.28730658 0.48034304 65280
-0.082330972 -0.28000402 0.48082823 65280
0.17406765 -0.28113067 0.48045564 65280
0.17681986 -0.28081653 0.48294449 65280
-0.078847878 -0.27601901 0.48407963 65280
0.17710006 -0.27647704 0.48383611 65280
-0.076146796 -0.27418995 0.48675105 65280
-0.072971135 -0.27224621 0.48551935 65280
0.1775514 -0.27286702 0.48588142 65280
-0.068034828 -0.27014241 0.48795936 65280
-0.062501408 -0.26797003 0.48903888 65280
-0.058462746 -0.26616144 0.48875469 65280
0.1735058 -0.26754099 0.4878796 65280
0.17734449 -0.26965436 0.48908171 65280
-0.057406675 -0.26473647 0.49121121 65280
-0.053084243 -0.26252648 0.49057424 65280
0.16860309 -0.26282179 0.48928457 65280
0.1723396 -0.26399019 0.49128449 65280
0.17523482 -0.26542658 0.49197686 65280
-0.055079211 -0.26220894 0.49368772 65280
-0.051706757 -0.26141813 0.49297568 65280
-0.047424149 -0.26041949 0.49253589 65280
-0.042530119 -0.25994661 0.49253118 65280
-0.037226193 -0.25893798 0.49283823 65280
-0.032647666 -0.2577073 0.49316892 65280
-0.027936697 -0.2567302 0.49263683 65280
0.16385014 -0.25649911 0.49219337 65280
0.16720587 -0.2587496 0.49223238 65280
0.17225935 -0.25970146 0.49397552 65280
0.17730184 -0.25913972 0.49489489 65280
0.18246926 -0.25891426 0.49525076 65280
0.18811102 -0.25877678 0.4955126 65280
0.19255465 -0.25876021 0.49495518 65280
0.19736433 -0.25870129 0.49506739 65280
0.20226341 -0.25876021 0.49495518 65280
0.2075077 -0.25863528 0.49494073 65280
0.21255471 -0.25888517 0.49496961 65280
0.21736172 -0.25930065 0.49480939 65280
0.2227418 -0.25919256 0.49483857 65280
0.22775725 -0.25922859 0.49459285 65280
0.23285247 -0.2597377 0.49404335 65280
0.23774603 -0.25970235 0.49397507 65280
0.24268746 -0.25944787 0.49412623 65280
0.24716125 -0.25962377 0.49468476 65280
0.25271845 -0.25926244 0.49386051 65280
0.2576285 -0.25958315 0.49338505 65280
0.26077083 -0.26045665 0.49348685 65280
-0.031980716 -0.2564784 0.49635717 65280
-0.027334811 -0.25531429 0.49622107 65280
-0.022752732 -0.25441948 0.49518675 65280
-0.017931521 -0.25326777 0.49413806 65280
-0.014161995 -0.25266555 0.4942317 65280
0.16385014 -0.25522125 0.4928728 65280
0.1678036 -0.2542682 0.49389443 65280
0.17294875 -0.25455451 0.49473748 65280
0.17744198 -0.25475788 0.49513271 65280
0.18242832 -0.25478461 0.49547321 65280
0.18742278 -0.25503418 0.49535081 65280
0.19253384 -0.25470182 0.49531123 65280
0.19759187 -0.25503418 0.49535081 65280
0.20246796 -0.25441048 0.49474552 65280
0.20738804 -0.25457636 0.49446157 65280
0.21248287 -0.25424451 0.49442187 65280
0.21753891 -0.25457639 0.49446163 65280
0.22213979 -0.25440249 0.49444073 65280
0.22758551 -0.25474995 0.49448267 65280
0.23246358 -0.25468814 0.49364164 65280
0.23783231 -0.25458452 0.49409229 65280
0.24250904 -0.25404513 0.49406454 65280
0.24770936 -0.2545186 0.49437898 65280
0.25188369 -0.25501674 0.4932647 65280
0.25719798 -0.25522125 0.4928728 65280
-0.060909942 -0.24933836 0.50053114 65280
-0.041960057 -0.24933836 0.50053114 65280
-0.037587006 -0.24998188 0.50018895 65280
-0.032138325 -0.25050378 0.49960262 65280
-0.027367108 -0.25112006 0.49920624 65280
-0.022250326 -0.25090423 0.49877834 65280
-0.017118618 -0.2503694 0.49771786 65280
-0.012734052 -0.24984497 0.49667531 65280
-0.0078177089 -0.24906307 0.49623427 65280
-0.0027666232 -0.24883957 0.49669078 65280
0.0019989975 -0.24798012 0.496723 65280
0.17325729 -0.25138772 0.49491113 65280
0.17759904 -0.25138772 0.49491113 65280
0.18266444 -0.25138772 0.49491113 65280
0.18772981 -0.25138772 0.49491113 65280
0.1927952 -0.25138772 0.49491113 65280
0.19713695 -0.25138772 0.49491113 65280
-0.16732086 -0.24547718 0.50258416 65280
-0.16190659 -0.24602878 0.50229084 65280
-0.15711707 -0.24612071 0.50224197 65280
-0.15274401 -0.24547718 0.50258416 65280
-0.14764214 -0.24547718 0.50258416 65280
-0.13087876 -0.24547718 0.50258416 65280
-0.12704353 -0.24590416 0.50213063 65280
-0.1225694 -0.24606204 0.50170696 65280
-0.11765427 -0.24590115 0.50179249 65280
-0.11264914 -0.24614006 0.50172836 65280
-0.10745961 -0.24590115 0.50179249 65280
-0.1023155 -0.24579109 0.50156784 65280
-0.097264953 -0.24590112 0.50179243 65280
-0.092113718 -0.24647486 0.50167614 65280
-0.087564275 -0.24628307 0.5016523 65280
-0.082750082 -0.24604751 0.50209212 65280
-0.077673309 -0.24612071 0.50224197 65280
-0.072550215 -0.24604751 0.50209212 65280
-0.067205392 -0.24640727 0.50147182 65280
-0.062281147 -0.24642193 0.50120097 65280
-0.05738882 -0.24656123 0.50118405 65280
-0.052499592 -0.24565239 0.50152028 65280
-0.04747263 -0.24583094 0.50093997 65280
-0.042606492 -0.24628735 0.50092643 65280
-0.037474941 -0.2460293 0.50040305 65280
-0.032364372 -0.24584596 0.50002861 65280
-0.02723626 -0.24544148 0.49920547 65280
-0.022600299 -0.24561369 0.49922717 65280
-0.017483175 -0.24573632 0.49840149 65280
-0.013076555 -0.24595685 0.49779877 65280
-0.0078905663 -0.24627632 0.49762893 65280
-0.0022945199 -0.24576518 0.49790069 65280
0.0024814156 -0.24563739 0.49796864 65280
0.0060995477 -0.24627632 0.49762893 65280
-0.28757977 -0.24161601 0.50463718 65280
-0.28247789 -0.24161601 0.50463718 65280
-0.25696841 -0.24161601 0.50463718 65280
-0.25259537 -0.24161601 0.50463718 65280
-0.24895115 -0.24161601 0.50463718 65280
-0.23656084 -0.24161601 0.50463718 65280
-0.23195919 -0.2412726 0.50459325 65280
-0.22708589 -0.24161601 0.50463718 65280
-0.22251363 -0.24075752 0.50452739 65280
-0.21748115 -0.24147269 0.50433588 65280
-0.21205942 -0.24152876 0.50377744 65280
-0.20759688 -0.242043 0.50345176 65280
-0.20254901 -0.24172835 0.50352043 65280
-0.19724098 -0.24153718 0.50416434 65280
-0.19265719 -0.24075752 0.50452739 65280
-0.1875941 -0.24092922 0.50454938 65280
-0.1824632 -0.24075752 0.50452739 65280
-0.17715712 -0.24157201 0.50386775 65280
-0.17271288 -0.24210989 0.50359052 65280
-0.16758326 -0.2416704 0.50340021 65280
-0.16258387 -0.24171944 0.5031665 65280
-0.1574048 -0.24158348 0.50288486 65280
-0.1523795 -0.24168345 0.50309128 65280
-0.14755821 -0.2420141 0.50344396 65280
-0.14267004 -0.2415431 0.50363779 65280
-0.13741967 -0.24210101 0.50362426 65280
-0.13223253 -0.24151382 0.5031234 65280
-0.12746827 -0.2413225 0.50233942 65280
-0.12241948 -0.24175686 0.50126767 65280
-0.11739601 -0.24142961 0.50122529 65280
-0.11250784 -0.24177253 0.50126946 65280
-0.10755 -0.24120873 0.50126725 65280
-0.10262903 -0.24160099 0.50124741 65280
-0.09766414 -0.24100262 0.50133908 65280
-0.092384659 -0.24147516 0.50165409 65280
-0.087464117 -0.24112436 0.50192565 65280
-0.082417563 -0.24121483 0.50211352 65280
-0.077342808 -0.24123281 0.50215101 65280
-0.072268493 -0.24125063 0.5021888 65280
-0.067496173 -0.24142295 0.50207025 65280
-0.062454958 -0.24080934 0.50174928 65280
-0.057828326 -0.24134506 0.5013836 65280
-0.05257383 -0.24207687 0.5005697 65280
-0.047491565 -0.24202228 0.50045717 65280
-0.042421617 -0.24202228 0.50045717 65280
-0.03764784 -0.24219374 0.50047928 65280
-0.032268167 -0.242552 0.49989235 65280
-0.31163156 -0.23646778 0.50737453 65280
-0.30725849 -0.23646778 0.50737453 65280
-0.30261454 -0.23689981 0.50657856 65280
-0.29717484 -0.23763947 0.50644267 65280
-0.29246375 -0.2382217 0.50597006 65280
-0.2878463 -0.23835108 0.50585043 65280
-0.2825546 -0.23784479 0.50550979 65280
-0.27753612 -0.2382535 0.50564104 65280
-0.27256924 -0.23792492 0.50520587 65280
-0.26752833 -0.23751725 0.50495595 65280
-0.26244256 -0.23807371 0.50531262 65280
-0.25735351 -0.23772727 0.50531095 65280
-0.25258368 -0.23827893 0.5056026 65280
-0.24765623 -0.2379721 0.50592744 65280
-0.2423683 -0.23814991 0.50610262 65280
-0.23755671 -0.2379382 0.50536585 65280
-0.23266204 -0.23763812 0.50521523 65280
-0.22741745 -0.23785965 0.50506628 65280
-0.22240749 -0.23675039 0.50485617 65280
-0.21729881 -0.23662165 0.50427252 65280
-0.21281844 -0.23648039 0.50397009 65280
-0.20771249 -0.23644477 0.50389469 65280
-0.20241538 -0.23665103 0.50399268 65280
-0.19746087 -0.23644084 0.50419706 65280
-0.19233657 -0.23725586 0.50469047 65280
-0.18756849 -0.23704864 0.50489503 65280
-0.18244116 -0.23707663 0.50489902 65280
-0.1772442 -0.23655644 0.50444448 65280
-0.17229147 -0.23657444 0.50417191 65280
-0.16746177 -0.23643766 0.5035398 65280
-0.16241457 -0.23609264 0.50345546 65280
-0.15753461 -0.23619607 0.50336617 65280
-0.15282938 -0.23656522 0.50347203 65280
-0.147442 -0.23690625 0.50317734 65280
-0.14237206 -0.23690628 0.5031774 65280
-0.1373021 -0.2369063 0.5031774 65280
-0.13322248 -0.23699129 0.50301892 65280
-0.12849498 -0.23733138 0.50238502 65280
-0.085077398 -0.23733138 0.50238502 65280
-0.082182892 -0.23733138 0.50238502 65280
-0.077841133 -0.23733138 0.50238502 65280
-0.072775744 -0.23733138 0.50238502 65280
-0.067710362 -0.23733138 0.50238502 65280
-0.062644973 -0.23733138 0.50238502 65280
-0.31654456 -0.23375495 0.50843948 65280
-0.31251788 -0.23381387 0.50821942 65280
-0.30738145 -0.2334341 0.50774181 65280
-0.30225483 -0.23305482 0.50726396 65280
-0.29736695 -0.23335338 0.50721848 65280
-0.29236102 -0.23305731 0.50692284 65280
-0.28739792 -0.23201507 0.5065186 65280
-0.28254938 -0.23225842 0.50587511 65280
-0.2774336 -0.2331906 0.50523394 65280
-0.27232683 -0.23288785 0.50507134 65280
-0.26722318 -0.23313048 0.50510406 65280
-0.26225784 -0.23294796 0.50520116 65280
-0.25722849 -0.23287739 0.50575995 65280
-0.25231344 -0.23194051 0.50622219 65280
-0.24748509 -0.23253755 0.50658935 65280
-0.2422377 -0.23244248 0.50652897 65280
-0.23754223 -0.23217429 0.50569338 65280
-0.23257497 -0.23251605 0.50539839 65280
-0.22776854 -0.23299915 0.50506604 65280
-0.22256643 -0.23349783 0.50442338 65280
-0.21822469 -0.23349783 0.50442338 65280
-0.21243566 -0.23349783 0.50442338 65280
-0.20809391 -0.23349783 0.50442338 65280
-0.20302853 -0.23349783 0.50442338 65280
-0.19579226 -0.23349783 0.50442338 65280
-0.19217412 -0.23349783 0.50442338 65280
-0.18783237 -0.23349783 0.50442338 65280
-0.18276697 -0.23349783 0.50442338 65280
-0.17770159 -0.23349783 0.50442338 65280
-0.17263621 -0.23349783 0.50442338 65280
-0.31590053 -0.2282625 0.50862288 65280
-0.31276557 -0.22857709 0.50881964 65280
-0.30757415 -0.22807875 0.50835025 65280
-0.30264962 -0.22875351 0.50795275 65280
-0.29763785 -0.22876535 0.50766051 65280
-0.29284072 -0.22875281 0.50751269 65280
-0.28841645 -0.22838643 0.50714111 65280
-0.24635249 -0.22895032 0.5072189 65280
-0.24408539 -0.22951421 0.50729656 65280
-0.31301975 -0.22455288 0.50917947 65280
-0.090600669 -0.29613775 0.47942266 65280
0.014482756 -0.29812109 0.4779906 65280
0.027227836 -0.2982195 0.47907081 65280
0.17429526 -0.29655477 0.47731337 65280
0.17713973 -0.29711527 0.47988445 65280
0.17693956 -0.29267648 0.48137093 65280
0.17835498 -0.28814781 0.48374647 65280
-0.084609598 -0.28212568 0.48592919 65280
0.17858186 -0.28439012 0.48472518 65280
0.18134108 -0.28333163 0.48727 65280
-0.081754588 -0.27881965 0.48825336 65280
0.17992917 -0.27815032 0.48634407 65280
0.18259668 -0.27954209 0.48835459 65280
0.18562655 -0.27883855 0.49050844 65280
-0.08057414 -0.27753997 0.4911989 65280
-0.077760629 -0.27539304 0.4909814 65280
-0.073937893 -0.27310368 0.4912926 65280
0.18301496 -0.2744312 0.49016207 65280
0.18733829 -0.27501029 0.49169457 65280
0.19258337 -0.27492717 0.49224845 65280
0.19678587 -0.27434823 0.4925184 65280
0.20033377 -0.27364427 0.49327028 65280
0.22312996 -0.27364427 0.49327028 65280
0.22754213 -0.27364427 0.49327028 65280
0.23268966 -0.27364427 0.49327028 65280
0.23710184 -0.27364427 0.49327028 65280
0.24235088 -0.27434823 0.4925184 65280
0.24747093 -0.27457017 0.4922117 65280
0.25258213 -0.27488407 0.49219933 65280
0.2573978 -0.27416369 0.4929941 65280
0.26210409 -0.27364427 0.49327028 65280
-0.071528487 -0.27182299 0.49225667 65280
-0.066761024 -0.27020437 0.4931173 65280
-0.06337931 -0.2685529 0.49314606 65280
0.17906189 -0.26928422 0.49143577 65280
0.18278462 -0.27003324 0.49254769 65280
0.18789932 -0.27008596 0.49289715 65280
0.19233415 -0.27013963 0.49299446 65280
0.19754463 -0.27040526 0.49375704 65280
0.20238368 -0.27079329 0.49462441 65280
0.20695202 -0.26974857 0.49534166 65280
0.21209955 -0.26974857 0.49534166 65280
0.21715012 -0.27027828 0.4947769 65280
0.22253345 -0.27045 0.49383622 65280
0.22765982 -0.27079371 0.49387997 65280
0.23250657 -0.2708343 0.49426103 65280
0.2373796 -0.27052748 0.49370062 65280
0.24250183 -0.27005357 0.49314079 65280
0.24745217 -0.27020362 0.49283466 65280
0.25258151 -0.2703003 0.49328649 65280
0.25733685 -0.27067432 0.49396846 65280
0.26174238 -0.27067435 0.49396852 65280
-0.065866917 -0.26844999 0.49603212 65280
-0.062815644 -0.26667672 0.49584243 65280
-0.059212793 -0.26502642 0.49483234 65280
0.17765273 -0.26541051 0.49392694 65280
0.18263531 -0.26600695 0.49459419 65280
0.18789932 -0.26620406 0.49496117 65280
0.19245157 -0.26588616 0.49467728 65280
0.19772159 -0.26645133 0.49513865 65280
0.20287535 -0.26662585 0.49574357 65280
0.2076859 -0.26664376 0.49608651 65280
0.21265703 -0.26679686 0.49577862 65280
0.21754067 -0.26612321 0.49511746 65280
0.22243033 -0.26619315 0.49465808 65280
0.22759867 -0.26588613 0.49467722 65280
0.23268366 -0.26619339 0.49465802 65280
0.23755276 -0.26555499 0.49406046 65280
0.24258357 -0.26580495 0.49393782 65280
0.24754442 -0.26573092 0.49408019 65280
0.25270945 -0.265872 0.49462301 65280
0.25767487 -0.26604995 0.49436358 65280
0.2616742 -0.26596802 0.49452046 65280
-0.082044862 -0.26065856 0.50017488 65280
-0.077632695 -0.26065856 0.50017488 65280
-0.072170019 -0.26121512 0.49987906 65280
-0.067127541 -0.26158613 0.49968177 65280
-0.062897585 -0.26249087 0.49891752 65280
-0.057768725 -0.26176208 0.49785161 65280
-0.052580647 -0.26063308 0.49735704 65280
-0.047717959 -0.25970188 0.4972859 65280
-0.042110186 -0.2592721 0.49751443 65280
-0.038384385 -0.25880989 0.49662754 65280
0.17784454 -0.26218966 0.495208 65280
0.1827583 -0.26259351 0.49574837 65280
0.18725675 -0.2618424 0.49572301 65280
0.19251341 -0.26226786 0.49535522 65280
0.19774695 -0.26242346 0.49565005 65280
0.20250557 -0.26235914 0.49619663 65280
0.20749889 -0.26273581 0.49623907 65280
0.21285073 -0.26240966 0.49584615 65280
0.21762288 -0.26279539 0.4954145 65280
0.22222373 -0.26244369 0.49537498 65280
0.22779471 -0.26314709 0.49545404 65280
0.23176952 -0.262678 0.49457085 65280
0.24199155 -0.262678 0.49457085 65280
0.24822406 -0.26240456 0.49509373 65280
0.25123 -0.2624729 0.49496302 65280
-0.17734765 -0.25728229 0.50197011 65280
-0.17281291 -0.25800896 0.50113076 65280
-0.1678731 -0.25748235 0.50107092 65280
-0.16279013 -0.25718448 0.50145578 65280
-0.15756229 -0.25712427 0.50156873 65280
-0.15250419 -0.25718457 0.5014559 65280
-0.14706725 -0.25757387 0.50124878 65280
-0.14220397 -0.25780797 0.50106138 65280
-0.13802443 -0.25772843 0.50130826 65280
-0.13275486 -0.25735527 0.50178981 65280
-0.12763725 -0.25741217 0.50190109 65280
-0.12240877 -0.25724143 0.50156713 65280
-0.1173422 -0.25741217 0.50190109 65280
-0.1131836 -0.25719121 0.50179195 65280
-0.10734129 -0.25702256 0.50210822 65280
-0.10234083 -0.25728229 0.50197011 65280
-0.097204491 -0.25752741 0.50158817 65280
-0.092248961 -0.2578083 0.50106132 65280
-0.087771848 -0.2576054 0.50066572 65280
-0.082633458 -0.25760543 0.50066578 65280
-0.077525347 -0.25770655 0.50086361 65280
-0.072356224 -0.25760463 0.50066614 65280
-0.067218252 -0.25760385 0.50066656 65280
-0.062776722 -0.2574521 0.50036973 65280
-0.057641361 -0.25745133 0.50037014 65280
-0.052516948 -0.25750193 0.50046909 65280
-0.047328983 -0.25722221 0.49992573 65280
-0.042161096 -0.2569938 0.49948087 65280
-0.03770712 -0.25658682 0.49869052 65280
-0.033029985 -0.2553716 0.4984557 65280
-0.29162276 -0.25156856 0.50500816 65280
-0.28721058 -0.25156856 0.50500816 65280
-0.2820631 -0.25156856 0.50500816 65280
-0.27765092 -0.25156856 0.50500816 65280
-0.27470946 -0.25156856 0.50500816 65280
-0.26588511 -0.25156856 0.50500816 65280
-0.26182693 -0.25243241 0.50438708 65280
-0.25719568 -0.25251943 0.50362164 65280
-0.25274739 -0.25180647 0.50407261 65280
-0.24750109 -0.25156856 0.50500816 65280
-0.24235356 -0.25156856 0.50500816 65280
-0.23794138 -0.25156856 0.50500816 65280
-0.23279388 -0.25221789 0.50466299 65280
-0.22744454 -0.25199485 0.50421524 65280
-0.22278199 -0.25281838 0.50389069 65280
-0.21760488 -0.25242388 0.5037297 65280
-0.21268742 -0.25256902 0.50372112 65280
-0.20763755 -0.25307274 0.50335896 65280
-0.20265219 -0.25281936 0.50304878 65280
-0.19768122 -0.25325292 0.50306714 65280
-0.19277188 -0.2525852 0.50324804 65280
-0.18760364 -0.25242034 0.50342268 65280
-0.18234509 -0.2526888 0.50345421 65280
-0.17724854 -0.25295582 0.50285488 65280
-0.17266719 -0.25269336 0.50233376 65280
-0.16767184 -0.25261062 0.50170356 65280
-0.16263016 -0.2522094 0.501836 65280
-0.15748079 -0.25270823 0.50189441 65280
-0.1524391 -0.25230584 0.50202751 65280
-0.14757033 -0.25239384 0.50173789 65280
-0.1424931 -0.25247794 0.50190568 65280
-0.13742261 -0.25258029 0.50211078 65280
-0.13240187 -0.25278702 0.50251997 65280
-0.12722255 -0.25269431 0.50233328 65280
-0.12257906 -0.25280318 0.50217366 65280
-0.11749808 -0.25245973 0.50219375 65280
-0.11256272 -0.25269431 0.50233328 65280
-0.10745993 -0.25276008 0.50246334 65280
-0.10233147 -0.25276902 0.5024823 65280
-0.097860642 -0.25258121 0.50211012 65280
-0.092632018 -0.25230992 0.50157022 65280
-0.08749903 -0.25228193 0.50151432 65280
-0.082413301 -0.25239387 0.50173795 65280
-0.07728859 -0.25239387 0.50173801 65280
-0.072495624 -0.25264302 0.50176734 65280
-0.067423396 -0.25208116 0.50158066 65280
-0.062733665 -0.25238651 0.50127852 65280
-0.057502061 -0.25230998 0.50157028 65280
-0.052451354 -0.25265673 0.50225884 65280
-0.04742239 -0.25253832 0.50169879 65280
-0.042387746 -0.25246647 0.50090647 65280
-0.037687864 -0.2532343 0.50015855 65280
-0.033285774 -0.25322729 0.49982238 65280
-0.30559462 -0.24767286 0.50707954 65280
-0.30214491 -0.24801663 0.50644374 65280
-0.29729354 -0.24847949 0.50580126 65280
-0.29258722 -0.2483348 0.50509161 65280
-0.2878108 -0.24822167 0.50486237 65280
-0.28240827 -0.24820007 0.50481725 65280
-0.27725479 -0.24822471 0.50520051 65280
-0.27245986 -0.24866103 0.50542158 65280
-0.26761508 -0.24853137 0.50549048 65280
-0.26249108 -0.24813643 0.50502098 65280
-0.25736037 -0.24784409 0.50409418 65280
-0.25248003 -0.2480064 0.50412232 65280
-0.24763437 -0.24837093 0.50516397 65280
-0.24261399 -0.24857332 0.50588006 65280
-0.23747322 -0.24848168 0.505391 65280
-0.2326148 -0.24843962 0.50497311 65280
-0.2274821 -0.24809195 0.50490052 65280
-0.22248714 -0.24813837 0.50469273 65280
-0.21763656 -0.24808621 0.50425488 65280
-0.21261343 -0.24773638 0.50387472 65280
-0.20763615 -0.24743101 0.50358379 65280
-0.20239843 -0.24764474 0.50338781 65280
-0.1974344 -0.24747403 0.50367427 65280
-0.19244309 -0.24800614 0.50412232 65280
-0.18749663 -0.24787137 0.50448245 65280
-0.18276544 -0.24794219 0.50429368 65280
-0.17771491 -0.24788578 0.50387752 65280
-0.17247739 -0.24734227 0.5034045 65280
-0.16782017 -0.2481458 0.50305289 65280
-0.16300607 -0.24832587 0.50242847 65280
-0.15739815 -0.24849501 0.50211209 65280
-0.15232062 -0.24790581 0.50256693 65280
-0.1473075 -0.24807222 0.50290316 65280
-0.14227606 -0.24757393 0.50354564 65280
-0.13719863 -0.24764712 0.50369549 65280
-0.13293329 -0.24769881 0.50338495 65280
-0.1280634 -0.24828711 0.5027889 65280
-0.121621 -0.24849501 0.50211209 65280
-0.11724012 -0.24849501 0.50211209 65280
-0.11139897 -0.24849501 0.50211209 65280
-0.10774823 -0.24849501 0.50211209 65280
-0.10268206 -0.24860598 0.50233626 65280
-0.097643167 -0.24879088 0.50270993 65280
-0.09387546 -0.24849501 0.50211209 65280
-0.085843861 -0.24849501 0.50211209 65280
-0.082193129 -0.24849501 0.50211209 65280
-0.077082105 -0.24849501 0.50211209 65280
-0.072701238 -0.24849501 0.50211209 65280
-0.069780655 -0.24849501 0.50211209 65280
-0.052257162 -0.24849501 0.50211209 65280
-0.048606426 -0.24849501 0.50211209 65280
-0.32030183 -0.24507572 0.50846046 65280
-0.31745833 -0.24408668 0.50833911 65280
-0.31205317 -0.24433354 0.50788426 65280
-0.30731758 -0.24449736 0.50725788 65280
-0.30231267 -0.24420753 0.50665689 65280
-0.29720128 -0.24382117 0.50585568 65280
-0.29252142 -0.24357976 0.50535476 65280
-0.28762066 -0.24420068 0.50496173 65280
-0.28228924 -0.24400979 0.50512612 65280
-0.27747199 -0.24362803 0.50545496 65280
-0.27247551 -0.24373685 0.5056802 65280
-0.26744962 -0.24382168 0.50585538 65280
-0.26243362 -0.24385108 0.50561094 65280
-0.25731242 -0.24389283 0.50504446 65280
-0.25239173 -0.24405505 0.50466162 65280
-0.24740705 -0.24385087 0.505611 65280
-0.24236421 -0.24403301 0.50595689 65280
-0.23751204 -0.24420483 0.50580895 65280
-0.2321495 -0.2442731 0.50511199 65280
-0.22769524 -0.24420069 0.50496173 65280
-0.22292097 -0.24432401 0.50497711 65280
-0.21727008 -0.24462694 0.50416875 65280
-0.21361935 -0.24462694 0.50416875 65280
-0.19755615 -0.24462694 0.50416875 65280
-0.19261609 -0.2442003 0.50496191 65280
-0.18750139 -0.24420069 0.50496173 65280
-0.1823858 -0.24420066 0.50496167 65280
-0.17873245 -0.24484536 0.50461894 65280
-0.14133492 -0.24462694 0.50416875 65280
-0.31727654 -0.23935995 0.50838506 65280
-0.31258166 -0.23985894 0.50804245 65280
-0.30774805 -0.23980311 0.50761449 65280
-0.30261531 -0.24020632 0.50700462 65280
-0.29873765 -0.24047238 0.50675529 65280
-0.24501562 -0.24075885 0.50622547 65280
-0.24355532 -0.24075885 0.50622547 65280
0.022493688 -0.29990393 0.48270553 65280
0.17858903 -0.29949644 0.48065695 65280
0.18172051 -0.2997134 0.48379779 65280
-0.091352537 -0.29533359 0.48513556 65280
0.18144076 -0.29468277 0.48548162 65280
-0.090032503 -0.29127836 0.48842436 65280
0.18231981 -0.29059425 0.48727804 65280
-0.087619171 -0.28541833 0.49012449 65280
0.18320335 -0.28588161 0.4885757 65280
0.18651988 -0.28642219 0.49100643 65280
0.19246534 -0.28524077 0.49276716 65280
0.19765849 -0.28524077 0.49276716 65280
0.20210977 -0.28524077 0.49276716 65280
0.21694738 -0.28524077 0.49276716 65280
0.24884823 -0.28524077 0.49276716 65280
0.2523357 -0.28564516 0.49198589 65280
0.25727284 -0.28608835 0.49186352 65280
0.262573 -0.28556827 0.49259302 65280
0.26591146 -0.28524077 0.49276716 65280
-0.086254716 -0.28187403 0.49285844 65280
-0.083737701 -0.28023058 0.49146712 65280
0.18802947 -0.28141874 0.49168482 65280
0.1925281 -0.28162876 0.49242255 65280
0.19746937 -0.28146482 0.49240673 65280
0.20262304 -0.28195935 0.49300179 65280
0.2074558 -0.28235537 0.49339527 65280
0.21245547 -0.28204399 0.49344769 65280
0.21757823 -0.28233433 0.49338588 65280
0.2225775 -0.28223532 0.49348435 65280
0.22743598 -0.28196132 0.49327534 65280
0.23260303 -0.28230596 0.49330825 65280
0.23755617 -0.28194508 0.49327368 65280
0.24239936 -0.28202614 0.49311724 65280
0.24747898 -0.28162891 0.49242246 65280
0.25249535 -0.28136155 0.4916586 65280
0.25748402 -0.2815176 0.49223003 65280
0.26254648 -0.28174567 0.49292669 65280
0.26544416 -0.28277779 0.49294421 65280
-0.085739732 -0.27803531 0.49659836 65280
-0.082723148 -0.27723393 0.495583 65280
-0.078312695 -0.27506173 0.49506491 65280
0.18890233 -0.27803203 0.49206978 65280
0.19258565 -0.27803203 0.49206978 65280
0.1982922 -0.27724683 0.49267608 65280
0.20242661 -0.27643687 0.49332982 65280
0.20753831 -0.27644044 0.49404863 65280
0.21268186 -0.27679652 0.49403358 65280
0.21747662 -0.27638331 0.49399194 65280
0.22219865 -0.27689651 0.49380615 65280
0.22723491 -0.27725428 0.49338949 65280
0.23263974 -0.27705848 0.49334252 65280
0.23770878 -0.27694964 0.49314871 65280
0.24248515 -0.27761516 0.4926151 65280
0.24783552 -0.27803203 0.49206978 65280
0.25225553 -0.27803203 0.49206978 65280
0.25779316 -0.27717316 0.4926883 65280
0.26250604 -0.27710709 0.49312791 65280
-0.085739732 -0.27345002 0.4990364 65280
-0.082756341 -0.27339637 0.4989391 65280
-0.077633359 -0.2728062 0.49814314 65280
-0.072463408 -0.27177259 0.49685419 65280
-0.068479925 -0.2708199 0.49628213 65280
0.20363563 -0.27282855 0.49483654 65280
0.20756452 -0.2719613 0.49529767 65280
0.21247561 -0.27217811 0.49518239 65280
0.21763226 -0.27282855 0.49483654 65280
-0.18070041 -0.2682097 0.50182277 65280
-0.17773287 -0.2682097 0.50182277 65280
-0.17231132 -0.26785618 0.50116134 65280
-0.16724765 -0.26805255 0.50152874 65280
-0.16363716 -0.2682097 0.50182277 65280
-0.1428645 -0.2682097 0.50182277 65280
-0.13618758 -0.2682097 0.50182277 65280
-0.13203305 -0.26847169 0.50168341 65280
-0.12728502 -0.26886472 0.50147444 65280
-0.12320469 -0.26853719 0.5016486 65280
-0.11764058 -0.2682097 0.50182277 65280
-0.11244742 -0.2682097 0.50182277 65280
-0.10719142 -0.2687076 0.50118047 65280
-0.10238178 -0.26850182 0.50102031 65280
-0.097580791 -0.26878619 0.50132746 65280
-0.092522636 -0.26877114 0.50152421 65280
-0.087189727 -0.26941502 0.50093019 65280
-0.082691684 -0.2692574 0.50063652 65280
-0.077386878 -0.26884907 0.4998782 65280
-0.072018676 -0.26815164 0.49858177 65280
-0.06768696 -0.26764011 0.49802005 65280
-0.26750037 -0.26296934 0.50460911 65280
-0.2623072 -0.26296934 0.50460911 65280
-0.25859782 -0.26296934 0.50460911 65280
-0.24598587 -0.26296934 0.50460911 65280
-0.24005081 -0.26296934 0.50460911 65280
-0.2370833 -0.26296934 0.50460911 65280
-0.23215951 -0.26318133 0.50421327 65280
-0.22758494 -0.26351991 0.50383091 65280
-0.2225569 -0.2633988 0.50405717 65280
-0.2177944 -0.2636244 0.50426078 65280
-0.21260126 -0.26340604 0.50437689 65280
-0.20728701 -0.26347035 0.50396514 65280
-0.20277847 -0.26339331 0.50381738 65280
-0.19758986 -0.26339334 0.50381744 65280
-0.19240125 -0.26339334 0.50381744 65280
-0.18743882 -0.26394239 0.503667 65280
-0.18233532 -0.26427707 0.5024327 65280
-0.17716703 -0.26360482 0.50139624 65280
-0.17231746 -0.26346195 0.50076067 65280
-0.16760175 -0.26385945 0.50106168 65280
-0.16264105 -0.26365346 0.50157565 65280
-0.15764251 -0.26449212 0.50226235 65280
-0.15249071 -0.26398575 0.50220793 65280
-0.14758107 -0.26408449 0.50193971 65280
-0.14262415 -0.26409316 0.50150365 65280
-0.137574 -0.26375368 0.50176513 65280
-0.13248834 -0.26408452 0.50157672 65280
-0.12746355 -0.26377299 0.50135034 65280
-0.12249582 -0.26356927 0.50132799 65280
-0.11733246 -0.26404303 0.5015465 65280
-0.11232485 -0.26396245 0.50207722 65280
-0.10761697 -0.26400515 0.50179315 65280
-0.10254113 -0.26401177 0.50148761 65280
-0.097387835 -0.26356924 0.50132793 65280
-0.092540249 -0.26397774 0.50137222 65280
-0.087374784 -0.26347169 0.50109524 65280
-0.0823358 -0.26419073 0.50056189 65280
-0.077862687 -0.26403466 0.50026739 65280
-0.072888382 -0.26426032 0.49964401 65280
-0.067751706 -0.26450297 0.49926332 65280
-0.29717559 -0.2590391 0.50669885 65280
-0.29346618 -0.2590391 0.50669885 65280
-0.28766558 -0.25934044 0.5058915 65280
-0.28244275 -0.25959262 0.5059191 65280
-0.27728969 -0.25934044 0.5058915 65280
-0.27220806 -0.25971442 0.5056926 65280
-0.26761425 -0.25974017 0.504816 65280
-0.26261389 -0.25961196 0.5042423 65280
-0.25756848 -0.25940001 0.50444764 65280
-0.25270709 -0.26006982 0.50513154 65280
-0.24753331 -0.25973254 0.50509441 65280
-0.24259125 -0.25989321 0.50511217 65280
-0.23755832 -0.25970304 0.5044204 65280
-0.23255284 -0.25943547 0.50422293 65280
-0.22747365 -0.25907567 0.50384796 65280
-0.22245023 -0.2593368 0.50370914 65280
-0.21753125 -0.25927526 0.50420511 65280
-0.21233451 -0.25961196 0.5042423 65280
-0.20742059 -0.2591306 0.50363004 65280
-0.20239054 -0.25881791 0.50331575 65280
-0.19745892 -0.25897804 0.50333357 65280
-0.19252492 -0.25913805 0.50335145 65280
-0.18742177 -0.25884756 0.50340295 65280
-0.18259254 -0.258825 0.50303745 65280
-0.17832509 -0.2594946 0.5019263 65280
-0.16617014 -0.25981984 0.50175339 65280
-0.16248679 -0.25981984 0.50175339 65280
-0.15769848 -0.2594946 0.5019263 65280
-0.15291016 -0.25981984 0.50175339 65280
-0.14922684 -0.25981984 0.50175339 65280
-0.13596687 -0.25981984 0.50175339 65280
-0.13228355 -0.25981984 0.50175339 65280
-0.12786354 -0.25981984 0.50175339 65280
-0.1227069 -0.25981984 0.50175339 65280
-0.11755025 -0.25981984 0.50175339 65280
-0.11190248 -0.25938621 0.50198394 65280
-0.10753161 -0.25929949 0.50203007 65280
-0.10318528 -0.2594946 0.5019263 65280
-0.098396957 -0.25981984 0.50175339 65280
-0.32165763 -0.25510886 0.50878859 65280
-0.31720635 -0.25510886 0.50878859 65280
-0.31224737 -0.2553243 0.5083909 65280
-0.30750877 -0.25616962 0.50759542 65280
-0.30257717 -0.25596967 0.50719833 65280
-0.29743376 -0.25471812 0.50635362 65280
-0.29301769 -0.25512367 0.50617588 65280
-0.28749016 -0.25506869 0.50541222 65280
-0.28232455 -0.25506839 0.5054124 65280
-0.27740523 -0.25489318 0.50539219 65280
-0.27261564 -0.25467151 0.50588471 65280
-0.26790631 -0.25447166 0.5054208 65280
-0.2631214 -0.25511745 0.50457734 65280
-0.25689256 -0.25603047 0.50405145 65280
-0.25197443 -0.25511143 0.50468165 65280
-0.24749494 -0.25491756 0.50511509 65280
-0.24255909 -0.25506318 0.50510627 65280
-0.23756769 -0.2548174 0.50491661 65280
-0.23267569 -0.25549322 0.50462013 65280
-0.22762902 -0.25535968 0.50412488 65280
-0.22215666 -0.25591719 0.50382847 65280
-0.21773666 -0.25591719 0.50382847 65280
-0.21258001 -0.25591719 0.50382847 65280
-0.20889668 -0.25591719 0.50382847 65280
-0.19195339 -0.25591719 0.50382847 65280
-0.18753341 -0.25591719 0.50382847 65280
-0.18311343 -0.25591719 0.50382847 65280
-0.32153344 -0.25135633 0.50884229 65280
-0.31768921 -0.25104553 0.50892669 65280
-0.31243798 -0.25089854 0.5085007 65280
-0.30748263 -0.25068524 0.50774294 65280
-0.30236626 -0.25127658 0.5067814 65280
-0.29876977 -0.25071371 0.50659519 65280
-0.32086974 -0.24681109 0.50867027 65280
-0.31792307 -0.24681109 0.50867027 65280
-0.31350312 -0.24681109 0.50867027 65280
-0.093404129 -0.29978427 0.48673308 65280
-0.093208827 -0.29745615 0.49004743 65280
0.18484451 -0.29658842 0.48862121 65280
0.18720333 -0.29797429 0.49090439 65280
0.25402856 -0.29699841 0.49217835 65280
0.25777054 -0.29765919 0.49182692 65280
0.26188675 -0.29732883 0.49200267 65280
0.26637715 -0.29732883 0.49200267 65280
-0.092319228 -0.29340035 0.49295893 65280
0.18462858 -0.29361638 0.48944637 65280
0.18780504 -0.29254523 0.4919979 65280
0.1924697 -0.29308891 0.49384513 65280
0.19795991 -0.29264516 0.49336046 65280
0.20232093 -0.29305726 0.49285817 65280
0.20722662 -0.29299629 0.49368849 65280
0.21268116 -0.29211873 0.49420661 65280
0.21780035 -0.2923623 0.49373734 65280
0.2226726 -0.29280749 0.49390331 65280
0.22783457 -0.29171205 0.49498916 65280
0.24429935 -0.29171205 0.49498916 65280
0.24808984 -0.29215628 0.49390346 65280
0.25280052 -0.29278073 0.49268433 65280
0.25758123 -0.29248831 0.49178863 65280
0.26271513 -0.29294336 0.49233064 65280
0.2666842 -0.29280105 0.49242809 65280
-0.091573447 -0.28856444 0.49553016 65280
-0.088863164 -0.28574207 0.49363321 65280
0.18925355 -0.2879636 0.49301824 65280
0.19245265 -0.2883001 0.49359441 65280
0.19743574 -0.28796363 0.4930183 65280
0.2026426 -0.28796363 0.4930183 65280
0.20769607 -0.28725672 0.49354863 65280
0.21272115 -0.28738812 0.49321109 65280
0.21749207 -0.28764626 0.49310616 65280
0.22235794 -0.28727689 0.49360991 65280
0.22731625 -0.28778395 0.49418348 65280
0.23261161 -0.28836659 0.49491462 65280
0.2376669 -0.28828752 0.49504825 65280
0.24241991 -0.28785247 0.49457029 65280
0.24699169 -0.28785148 0.49364418 65280
0.2518124 -0.28810436 0.49237716 65280
0.25894699 -0.28836682 0.4922376 65280
0.26315835 -0.28792942 0.49247026 65280
0.26637882 -0.28771064 0.49258649 65280
-0.096970744 -0.28378248 0.49920538 65280
-0.092173718 -0.28456688 0.49793881 65280
-0.08901906 -0.28361401 0.49589729 65280
-0.14037791 -0.27849609 0.50201619 65280
-0.13738431 -0.27849609 0.50201619 65280
-0.13246249 -0.27870521 0.5016219 65280
-0.12754394 -0.27891427 0.50122756 65280
-0.12230969 -0.27891427 0.50122756 65280
-0.11822529 -0.27902475 0.50173515 65280
-0.1121882 -0.27893659 0.50178194 65280
-0.10721476 -0.27953118 0.50118268 65280
-0.10270064 -0.27979019 0.5006485 65280
-0.097732984 -0.28022113 0.50019294 65280
-0.092350811 -0.27923819 0.49909514 65280
-0.08815895 -0.27864671 0.4976891 65280
-0.23093423 -0.2745313 0.50412434 65280
-0.22719222 -0.2745313 0.50412434 65280
-0.22419864 -0.2745313 0.50412434 65280
-0.18777652 -0.2745313 0.50412434 65280
-0.18228827 -0.2745313 0.50412434 65280
-0.17719136 -0.27450299 0.50328994 65280
-0.17237103 -0.27489316 0.50322402 65280
-0.16717453 -0.27495295 0.50333381 65280
-0.16268806 -0.27495295 0.50333381 65280
-0.1574883 -0.27501273 0.50344354 65280
-0.15221958 -0.27495295 0.50333381 65280
-0.14777605 -0.27569348 0.50312877 65280
-0.14264627 -0.27562436 0.5027194 65280
-0.13737173 -0.27509782 0.50235075 65280
-0.13240603 -0.27484018 0.50156915 65280
-0.1275228 -0.27473718 0.50107026 65280
-0.12243359 -0.27455527 0.50133169 65280
-0.11753758 -0.27494669 0.50176418 65280
-0.11255156 -0.27514398 0.50184226 65280
-0.10727894 -0.27452138 0.50129813 65280
-0.10241983 -0.27441272 0.5007897 65280
-0.097895727 -0.27425179 0.50049782 65280
-0.092687368 -0.27425179 0.50049782 65280
-0.087801464 -0.27393064 0.49991354 65280
-0.31700015 -0.27056652 0.50623244 65280
-0.31250975 -0.27056652 0.50623244 65280
-0.28182539 -0.27056652 0.50623244 65280
-0.27733499 -0.27056652 0.50623244 65280
-0.27185917 -0.27099162 0.50544012 65280
-0.2673727 -0.27099162 0.50544012 65280
-0.26213107 -0.27158415 0.50531375 65280
-0.25715855 -0.27147266 0.50507104 65280
-0.25234443 -0.2715731 0.50494218 65280
-0.24740639 -0.27179357 0.50506514 65280
-0.24213572 -0.27115682 0.50535226 65280
-0.23748609 -0.27167836 0.50513786 65280
-0.23255534 -0.27164251 0.50475425 65280
-0.22754273 -0.2714158 0.50464827 65280
-0.22265124 -0.27133104 0.50480658 65280
-0.21756992 -0.27159536 0.50466603 65280
-0.21260083 -0.2714158 0.50464827 65280
-0.20756197 -0.27114248 0.50445384 65280
-0.20251922 -0.27145392 0.50440145 65280
-0.19742423 -0.27125296 0.50463194 65280
-0.192393 -0.27136359 0.50455016 65280
-0.18769294 -0.27104786 0.50396311 65280
-0.18276525 -0.27091897 0.50302488 65280
-0.17716093 -0.27082789 0.50221044 65280
-0.17225075 -0.27088764 0.50209779 65280
-0.16778772 -0.27088764 0.50209779 65280
-0.16236806 -0.27063626 0.50257123 65280
-0.1573232 -0.27079037 0.50316882 65280
-0.15237938 -0.27061135 0.50315076 65280
-0.14736064 -0.27028993 0.50286859 65280
-0.14233848 -0.27070776 0.5024361 65280
-0.13785511 -0.27049667 0.50224274 65280
-0.13271102 -0.27064967 0.50165808 65280
-0.12750873 -0.27130583 0.5013091 65280
-0.12198794 -0.2707434 0.50160825 65280
-0.11736699 -0.270336 0.50224948 65280
-0.11271135 -0.27080834 0.50195116 65280
-0.10788868 -0.27104336 0.50144869 65280
-0.10224047 -0.27130583 0.5013091 65280
-0.097781368 -0.27130583 0.5013091 65280
-0.092430443 -0.27104336 0.50144869 65280
-0.32569697 -0.26570988 0.50824851 65280
-0.32255682 -0.26663473 0.50775671 65280
-0.31794253 -0.266799 0.50710303 65280
-0.31275174 -0.26683733 0.50685614 65280
-0.30749694 -0.26685262 0.50752753 65280
-0.30232975 -0.26587504 0.50816065 65280
-0.29703212 -0.26595971 0.50803471 65280
-0.29229301 -0.26631725 0.50747246 65280
-0.28706086 -0.26667705 0.50699371 65280
-0.28220758 -0.26656705 0.50666016 65280
-0.27741867 -0.26625368 0.5064348 65280
