# .PCD v0.7 - Point Cloud Data file format
VERSION 0.7
FIELDS x y z rgba
SIZE 4 4 4 4
TYPE F F F U
COUNT 1 1 1 1
WIDTH 1176
HEIGHT 1
VIEWPOINT 0 0 0 1 0 0 0
POINTS 1176
DATA ascii
0.13342179 -0.22594449 0.49711388 65280
0.1376698 -0.22716944 0.4965435 65280
0.14250992 -0.22754769 0.49663892 65280
0.14748067 -0.22753875 0.49662012 65280
0.15224162 -0.22723733 0.49642646 65280
0.15753874 -0.22723733 0.49642646 65280
0.1623441 -0.22744329 0.49641129 65280
0.16744715 -0.22761779 0.49679047 65280
0.17225134 -0.22795294 0.496499 65280
0.17755347 -0.22830291 0.49627173 65280
0.18216325 -0.22835046 0.49625933 65280
0.18757915 -0.22864111 0.49618345 65280
0.19244719 -0.22795294 0.496499 65280
0.19726129 -0.22758949 0.49706981 65280
0.20256826 -0.22798075 0.49655968 65280
0.20744142 -0.22897696 0.49550149 65280
0.21348141 -0.22929068 0.49533468 65280
0.21810025 -0.22897696 0.49550149 65280
0.22282057 -0.22876844 0.49589553 65280
0.22674572 -0.2288724 0.4955571 65280
0.24901083 -0.22929068 0.49533468 65280
0.25262186 -0.22871588 0.49578193 65280
-0.21729712 -0.22338933 0.50300276 65280
-0.21371809 -0.22338933 0.50300276 65280
-0.20154943 -0.22338933 0.50300276 65280
-0.19713528 -0.22388574 0.5023613 65280
-0.19268355 -0.2243773 0.50209993 65280
-0.18744676 -0.22369853 0.50219113 65280
-0.18282747 -0.22325373 0.50269735 65280
-0.17784591 -0.22328761 0.5027737 65280
-0.17434891 -0.22338933 0.50300276 65280
-0.16003282 -0.22338933 0.50300276 65280
-0.15682656 -0.22381358 0.50255072 65280
-0.15219903 -0.22429162 0.50195676 65280
-0.14739996 -0.2241307 0.50147593 65280
-0.14265087 -0.22433612 0.50161844 65280
-0.13771695 -0.22444952 0.50187272 65280
-0.13252409 -0.22411783 0.50213003 65280
-0.12768617 -0.22441539 0.50179648 65280
-0.12266191 -0.22438136 0.50172031 65280
-0.1177109 -0.22448362 0.50194901 65280
-0.11269876 -0.22447227 0.50192362 65280
-0.10764828 -0.22438133 0.50172025 65280
-0.10258135 -0.22424415 0.50141567 65280
-0.097624034 -0.22434703 0.50164413 65280
-0.092634663 -0.22438136 0.50172031 65280
-0.087550431 -0.2241767 0.50126272 65280
-0.082525134 -0.22410855 0.50111032 65280
-0.077479482 -0.22397208 0.5008052 65280
-0.072439924 -0.22383654 0.50049996 65280
-0.067519166 -0.22407438 0.50103396 65280
-0.062544271 -0.22415376 0.50121206 65280
-0.057532847 -0.22410849 0.5011102 65280
-0.052523728 -0.22406305 0.50100857 65280
-0.047542844 -0.2241424 0.50118655 65280
-0.042563364 -0.22424415 0.50141567 65280
-0.037561871 -0.22424415 0.50141561 65280
-0.03255406 -0.22419895 0.50131387 65280
-0.027525997 -0.2239719 0.50080532 65280
-0.022493631 -0.22360836 0.49999189 65280
-0.017507387 -0.22363111 0.5000428 65280
-0.012526086 -0.22374454 0.50029707 65280
-0.0075372341 -0.22376713 0.50034797 65280
-0.0025431653 -0.22347197 0.49968693 65280
0.0024385059 -0.22322191 0.49912781 65280
0.0074231997 -0.22338155 0.49948332 65280
0.012413673 -0.22352898 0.49981388 65280
0.017401526 -0.22356291 0.49989024 65280
0.022387812 -0.22356291 0.49989024 65280
0.027379958 -0.22360836 0.49999189 65280
0.032375518 -0.22366522 0.50011903 65280
0.037361577 -0.22365382 0.50009352 65280
0.042280868 -0.22329032 0.49928018 65280
0.047252171 -0.22324464 0.49917865 65280
0.052298311 -0.22352919 0.49981377 65280
0.057540841 -0.22330141 0.49965176 65280
0.062412821 -0.22346646 0.49935812 65280
0.067470394 -0.22317845 0.4993774 65280
0.072400749 -0.2235413 0.4995243 65280
0.077459946 -0.22326072 0.49956015 65280
0.082394838 -0.22361484 0.49969101 65280
0.087376729 -0.22313729 0.49928606 65280
0.092256196 -0.22335468 0.4991087 65280
0.097715259 -0.22315373 0.49897531 65280
0.10271362 -0.22319916 0.4990769 65280
0.10773581 -0.22328974 0.49928048 65280
0.1126694 -0.22319919 0.49907696 65280
0.11724746 -0.2237336 0.49828944 65280
0.12892142 -0.22427139 0.49800348 65280
0.13673788 -0.22427139 0.49800348 65280
0.14597553 -0.22427139 0.49800348 65280
0.15308142 -0.22427139 0.49800348 65280
0.16231906 -0.22427139 0.49800348 65280
0.19713789 -0.22427139 0.49800348 65280
0.20069082 -0.22427139 0.49800348 65280
-0.28744587 -0.21833318 0.50569117 65280
-0.28259501 -0.2189419 0.50504392 65280
-0.27761596 -0.21870449 0.50500834 65280
-0.27289119 -0.21875453 0.50546712 65280
-0.26702017 -0.21875928 0.50523812 65280
-0.26242602 -0.21900851 0.50468493 65280
-0.25756076 -0.21919224 0.50441068 65280
-0.25267753 -0.21908209 0.50472671 65280
-0.24796271 -0.21823378 0.50546092 65280
-0.24235024 -0.21833318 0.50569117 65280
-0.23688087 -0.21867976 0.50505394 65280
-0.23241916 -0.21940479 0.5042153 65280
-0.2273418 -0.21967806 0.50392437 65280
-0.22242832 -0.22000638 0.50375599 65280
-0.21731441 -0.21954247 0.50346243 65280
-0.21242033 -0.21962868 0.50330347 65280
-0.2077045 -0.21990229 0.50357324 65280
-0.20260324 -0.21943849 0.5032739 65280
-0.19746406 -0.21963489 0.50296038 65280
-0.19236773 -0.21916032 0.50263774 65280
-0.18752065 -0.2195515 0.50261641 65280
-0.18255988 -0.21910581 0.50261068 65280
-0.17740034 -0.21952792 0.50271523 65280
-0.17244317 -0.21962988 0.50330275 65280
-0.16751812 -0.21978344 0.50401396 65280
-0.16247037 -0.22009814 0.50396854 65280
-0.15753649 -0.2197427 0.50356638 65280
-0.15247324 -0.21919091 0.50270861 65280
-0.14770083 -0.21892715 0.5016945 65280
-0.1427352 -0.21895221 0.5017519 65280
-0.13757356 -0.21949424 0.5024851 65280
-0.13266876 -0.21910584 0.50261074 65280
-0.12759458 -0.21949375 0.50248533 65280
-0.12273848 -0.21919151 0.5028078 65280
-0.11735827 -0.21940354 0.5027861 65280
-0.11227617 -0.21922754 0.50238419 65280
-0.10741077 -0.21931303 0.50222546 65280
-0.1025122 -0.21906745 0.50242567 65280
-0.097345881 -0.21930337 0.5025562 65280
-0.092311524 -0.21919455 0.5023073 65280
-0.087562323 -0.21920687 0.50182885 65280
-0.082695119 -0.21905677 0.50118798 65280
-0.07719636 -0.21938695 0.50097811 65280
-0.072248347 -0.21947633 0.50118226 65280
-0.067308351 -0.21897724 0.50180942 65280
-0.06235981 -0.21909459 0.50207734 65280
-0.057437409 -0.21921048 0.50158429 65280
-0.052342534 -0.21952105 0.5012843 65280
-0.047242325 -0.21912625 0.50179636 65280
-0.042427439 -0.21912812 0.50215393 65280
-0.037441917 -0.21912812 0.50215393 65280
-0.032437019 -0.21899441 0.50184745 65280
-0.027450344 -0.21958847 0.50143725 65280
-0.022449318 -0.21956065 0.50093299 65280
-0.017267901 -0.21903789 0.50119066 65280
-0.012627342 -0.21901587 0.50141573 65280
-0.007679753 -0.21918353 0.50105727 65280
-0.0028927065 -0.22019321 0.5001719 65280
0.00030494056 -0.22050691 0.50000513 65280
0.0088319993 -0.22050691 0.50000513 65280
0.01238494 -0.22050691 0.50000513 65280
0.017359057 -0.22050691 0.50000513 65280
0.02185945 -0.22008863 0.50022751 65280
0.027602071 -0.22008592 0.5004555 65280
0.032304112 -0.22003117 0.50068271 65280
0.036984444 -0.22008589 0.50045544 65280
0.040097885 -0.22050691 0.50000513 65280
0.054309648 -0.22050691 0.50000513 65280
0.056441411 -0.22050691 0.50000513 65280
0.079890825 -0.22050691 0.50000513 65280
0.082733177 -0.22050691 0.50000513 65280
0.087707296 -0.22050691 0.50000513 65280
0.091970816 -0.22050691 0.50000513 65280
0.10405082 -0.22050691 0.50000513 65280
0.10760377 -0.22050691 0.50000513 65280
-0.31106737 -0.21454109 0.50770748 65280
-0.3069911 -0.21475941 0.50730824 65280
-0.30254784 -0.21527649 0.50683105 65280
-0.29759267 -0.21540515 0.50642431 65280
-0.29263827 -0.21541357 0.50611103 65280
-0.28768814 -0.21542017 0.50579858 65280
-0.28261134 -0.21505089 0.50562418 65280
-0.27755159 -0.21531293 0.50554669 65280
-0.27271858 -0.21512955 0.50580895 65280
-0.26738414 -0.21501398 0.50547397 65280
-0.26246211 -0.21406454 0.50475192 65280
-0.2574625 -0.213853 0.50437355 65280
-0.25244802 -0.21402703 0.504664 65280
-0.24735828 -0.21424516 0.50517499 65280
-0.24237792 -0.21519472 0.50559825 65280
-0.23739447 -0.21479911 0.50499618 65280
-0.23254913 -0.21395639 0.5043593 65280
-0.22757763 -0.21385303 0.50437361 65280
-0.22246502 -0.21404436 0.50410193 65280
-0.21783318 -0.21406986 0.50394249 65280
-0.2124752 -0.21398723 0.50379527 65280
-0.20755278 -0.21476075 0.5035457 65280
-0.20239823 -0.21505788 0.50346869 65280
-0.19723861 -0.2148602 0.50300753 65280
-0.19195995 -0.21494983 0.50295985 65280
-0.1871127 -0.21438964 0.50325769 65280
-0.18239997 -0.21433163 0.50357175 65280
-0.17718558 -0.21464781 0.50328231 65280
-0.17263958 -0.21469498 0.50322115 65280
-0.16719145 -0.21486257 0.50401294 65280
-0.16249619 -0.2144773 0.50424069 65280
-0.15780418 -0.21463618 0.50383449 65280
-0.15285674 -0.2150628 0.50322336 65280
-0.14820801 -0.21548761 0.50267392 65280
-0.14110212 -0.21548761 0.50267392 65280
-0.13754918 -0.21548761 0.50267392 65280
-0.13214871 -0.21523665 0.50280732 65280
-0.12760095 -0.2148602 0.50300753 65280
-0.12271071 -0.21500844 0.50335336 65280
-0.11736927 -0.21517575 0.50348687 65280
-0.11267859 -0.2151739 0.5028407 65280
-0.10770447 -0.21548761 0.50267392 65280
-0.10273036 -0.21548761 0.50267392 65280
-0.097756237 -0.21548761 0.50267392 65280
-0.092782117 -0.21548761 0.50267392 65280
-0.31107327 -0.21090057 0.50822741 65280
-0.30774868 -0.21087649 0.50773925 65280
-0.30258304 -0.21039484 0.50686282 65280
-0.29772148 -0.21023627 0.50631559 65280
-0.29254863 -0.2106867 0.50617039 65280
-0.28719786 -0.21017151 0.50616121 65280
-0.28242365 -0.21032713 0.50647485 65280
-0.27759033 -0.21011248 0.50675154 65280
-0.27265579 -0.21050638 0.50628078 65280
-0.26820961 -0.21087466 0.50557971 65280
-0.24256393 -0.21140733 0.5054906 65280
-0.2378875 -0.21101609 0.50542897 65280
-0.23418918 -0.21046831 0.50534272 65280
-0.31007943 -0.20708309 0.50827521 65280
-0.30763495 -0.20627777 0.50779742 65280
-0.28108799 -0.20670384 0.50734431 65280
0.014649886 -0.29851007 0.46419293 65280
0.017566744 -0.2999585 0.46512157 65280
-0.086251825 -0.29709148 0.46862805 65280
-0.084310941 -0.29597741 0.46553957 65280
-0.0054291212 -0.29724374 0.46486625 65280
-0.0032860865 -0.2980544 0.46613404 65280
0.014685401 -0.29669493 0.46666816 65280
0.016186455 -0.29785976 0.46850273 65280
0.0385589 -0.29658651 0.46917972 65280
0.042128514 -0.29504538 0.46943289 65280
0.050872568 -0.29557887 0.47028175 65280
0.14372921 -0.29724374 0.46486625 65280
0.14711173 -0.29680982 0.46651268 65280
0.15114532 -0.29639581 0.4688766 65280
-0.087551825 -0.29214394 0.47022051 65280
0.026985813 -0.29249889 0.47078687 65280
0.052033905 -0.29397824 0.46773505 65280
0.14907859 -0.29235545 0.46784285 65280
0.1526406 -0.29167998 0.46980652 65280
0.15671916 -0.29200187 0.47180611 65280
0.15338384 -0.28813204 0.47008848 65280
0.15746476 -0.2877526 0.47129697 65280
0.16215684 -0.28821611 0.47344151 65280
0.15950558 -0.28458038 0.47159946 65280
0.16292395 -0.28364107 0.47351465 65280
0.16650426 -0.28326902 0.47569448 65280
0.16380821 -0.27951503 0.47429276 65280
0.16735098 -0.27923056 0.4762845 65280
0.17077814 -0.27899677 0.47909859 65280
-0.090538971 -0.27594671 0.47958782 65280
-0.088136837 -0.27329409 0.47929934 65280
0.16909471 -0.2741423 0.47760251 65280
0.17202984 -0.27507785 0.47972614 65280
-0.085901052 -0.27114275 0.47987691 65280
0.17325991 -0.27037904 0.48047176 65280
0.17693204 -0.27033067 0.48332897 65280
-0.080299236 -0.26655111 0.48345095 65280
-0.078068659 -0.26440439 0.48402607 65280
0.17384772 -0.26685166 0.48102599 65280
0.1773282 -0.26586848 0.48370063 65280
0.18089066 -0.26560354 0.48621991 65280
-0.076256238 -0.26369023 0.48723724 65280
-0.072316796 -0.26122993 0.48571399 65280
0.17803475 -0.26119184 0.4848848 65280
0.18120731 -0.26178113 0.48734632 65280
-0.067467235 -0.25897011 0.48861441 65280
-0.061996788 -0.25638157 0.48885813 65280
-0.057166338 -0.25465047 0.48864609 65280
0.17907619 -0.25630778 0.48685876 65280
0.1822854 -0.25736886 0.48918268 65280
0.18522461 -0.25603694 0.49130654 65280
-0.056702949 -0.25453147 0.49154079 65280
-0.052159704 -0.25317907 0.48971158 65280
-0.04746417 -0.25171575 0.49111253 65280
-0.044152919 -0.25038931 0.4897792 65280
0.18308081 -0.25218984 0.49014318 65280
0.18711179 -0.25279352 0.49257806 65280
0.20978357 -0.25221029 0.49334121 65280
0.25288215 -0.25263545 0.4931151 65280
0.25717804 -0.25244737 0.49253559 65280
-0.045918677 -0.25093475 0.49401945 65280
-0.042073335 -0.24906659 0.4930712 65280
-0.037638977 -0.24721429 0.49344933 65280
-0.03305326 -0.24575205 0.49252799 65280
0.18388724 -0.24912296 0.49045253 65280
0.18759699 -0.24786189 0.49272752 65280
0.19264629 -0.24834974 0.49369505 65280
0.19736499 -0.24792302 0.49380866 65280
0.20245932 -0.24763238 0.49360463 65280
0.20741619 -0.24859604 0.4937259 65280
0.2124531 -0.24810413 0.49366385 65280
0.2176453 -0.24875629 0.49404514 65280
0.22281252 -0.24809331 0.49404916 65280
0.22717609 -0.248197 0.4938277 65280
0.23239866 -0.24810961 0.49390367 65280
0.23762049 -0.2477874 0.4941828 65280
0.24235134 -0.24825929 0.49374312 65280
0.24761291 -0.24820982 0.4934155 65280
0.25251514 -0.2478343 0.49279302 65280
0.25662839 -0.24819919 0.49275589 65280
-0.0401401 -0.24328148 0.49808875 65280
-0.036819585 -0.24424867 0.49725085 65280
-0.032831915 -0.24391863 0.49611402 65280
-0.028007943 -0.24306661 0.49503183 65280
-0.02268943 -0.24332955 0.49491721 65280
-0.017851181 -0.24315627 0.49486062 65280
-0.013564844 -0.24209341 0.49456766 65280
0.013215671 -0.24152495 0.49449244 65280
0.18914603 -0.24363551 0.49337023 65280
0.19249253 -0.24405763 0.49314579 65280
0.19730756 -0.24346076 0.49378669 65280
0.20222636 -0.24364166 0.49369049 65280
0.20712152 -0.24380435 0.49328047 65280
0.21263637 -0.24349838 0.4936319 65280
0.21745293 -0.24352416 0.49391478 65280
0.22202754 -0.24378338 0.49366909 65280
0.22763079 -0.24405763 0.49314579 65280
0.23265053 -0.24405763 0.49314579 65280
0.23798552 -0.24398181 0.49363908 65280
0.24269003 -0.24405763 0.49314579 65280
0.24627557 -0.24405763 0.49314579 65280
0.25344664 -0.24405763 0.49314579 65280
0.25631508 -0.24405763 0.49314579 65280
-0.12104024 -0.2381793 0.50080162 65280
-0.11815094 -0.2381793 0.50080162 65280
-0.056031197 -0.2381793 0.50080162 65280
-0.051968046 -0.23834841 0.50048518 65280
-0.047108591 -0.23891866 0.49941754 65280
-0.042534161 -0.23981239 0.49871981 65280
-0.037532397 -0.23907731 0.49813992 65280
-0.032798033 -0.23922758 0.49797907 65280
-0.02772231 -0.23890287 0.49730244 65280
-0.022711299 -0.23911875 0.4977538 65280
-0.017662728 -0.23892958 0.49735895 65280
-0.012614428 -0.23861222 0.4967019 65280
-0.0075804438 -0.23709276 0.49684909 65280
-0.0032777991 -0.23709276 0.49684909 65280
0.0038932753 -0.23899227 0.49583909 65280
0.0077975262 -0.23857015 0.49606353 65280
0.012498563 -0.23835914 0.4961758 65280
0.017040245 -0.23920333 0.49572688 65280
0.024689389 -0.23899227 0.49583909 65280
0.028992033 -0.23709276 0.49684909 65280
0.031681187 -0.23788422 0.49642825 65280
0.041899964 -0.23772594 0.49651241 65280
0.048353933 -0.23709276 0.49684909 65280
0.051652629 -0.23696613 0.49691641 65280
-0.19760646 -0.23435265 0.50283629 65280
-0.16654658 -0.23435265 0.50283629 65280
-0.16221264 -0.23435265 0.50283629 65280
-0.15715639 -0.23435265 0.50283629 65280
-0.15282243 -0.23435265 0.50283629 65280
-0.14776619 -0.23435265 0.50283629 65280
-0.14270991 -0.23435265 0.50283629 65280
-0.13765368 -0.23435265 0.50283629 65280
-0.13211724 -0.23446004 0.50221288 65280
-0.12719806 -0.23501502 0.50198072 65280
-0.12233749 -0.23534542 0.50155336 65280
-0.11730465 -0.23538087 0.50162888 65280
-0.11230477 -0.23548719 0.50185549 65280
-0.1076325 -0.23550124 0.50154603 65280
-0.10259893 -0.23508838 0.50131249 65280
-0.097327106 -0.23534568 0.50155324 65280
-0.092550755 -0.23520374 0.50156009 65280
-0.087707728 -0.23534542 0.50155336 65280
-0.082694791 -0.23545174 0.50177997 65280
-0.07760781 -0.23470838 0.50189203 65280
-0.072513491 -0.23520441 0.5012508 65280
-0.067485824 -0.23463754 0.50174099 65280
-0.062475666 -0.23477894 0.50204337 65280
-0.05719249 -0.23504458 0.5013358 65280
-0.052426625 -0.23489437 0.50028312 65280
-0.04741209 -0.23431116 0.49968719 65280
-0.042753514 -0.23411672 0.49893486 65280
-0.037946038 -0.23439655 0.4984085 65280
-0.0326792 -0.23456009 0.49819574 65280
-0.028089713 -0.23493999 0.49799374 65280
-0.022639697 -0.23487668 0.49802741 65280
-0.017619949 -0.23519327 0.49785906 65280
-0.012600196 -0.23519327 0.49785906 65280
-0.0075804438 -0.2345601 0.49819574 65280
-0.0039949063 -0.23519327 0.49785906 65280
0.048353933 -0.23519327 0.49785906 65280
0.051939469 -0.2345601 0.49819574 65280
-0.27706197 -0.22925048 0.50554919 65280
-0.272728 -0.22925048 0.50554919 65280
-0.2691164 -0.22925048 0.50554919 65280
-0.23588955 -0.22925048 0.50554919 65280
-0.23227794 -0.22925048 0.50554919 65280
-0.22708498 -0.22975031 0.50490582 65280
-0.22217473 -0.23000394 0.5041576 65280
-0.21768685 -0.22994259 0.50393534 65280
-0.2124864 -0.2302151 0.50418687 65280
-0.20727479 -0.23044939 0.50400561 65280
-0.20260572 -0.23093025 0.50352347 65280
-0.19743136 -0.23029943 0.50313079 65280
-0.19238666 -0.23078214 0.50319773 65280
-0.18730925 -0.22954188 0.50302607 65280
-0.18253523 -0.22974131 0.50314891 65280
-0.17772801 -0.23004191 0.50380707 65280
-0.17232315 -0.23060992 0.50410557 65280
-0.16737938 -0.23056628 0.50371695 65280
-0.1624207 -0.23043522 0.50293726 65280
-0.15759656 -0.23048291 0.5025478 65280
-0.15254351 -0.22994162 0.50235027 65280
-0.1475372 -0.23054555 0.50224698 65280
-0.14243928 -0.22988254 0.50221992 65280
-0.13755852 -0.23031837 0.50228065 65280
-0.13253404 -0.22992662 0.50216949 65280
-0.12753053 -0.22984438 0.50164694 65280
-0.12248442 -0.22980972 0.50157106 65280
-0.11747539 -0.22984441 0.50164694 65280
-0.11245707 -0.22986171 0.5016849 65280
-0.10743202 -0.2305011 0.50136065 65280
-0.10240868 -0.23051283 0.50138593 65280
-0.097395629 -0.23054785 0.50146163 65280
-0.092366755 -0.23054788 0.50146168 65280
-0.087322019 -0.23025262 0.50150537 65280
-0.082309 -0.23054788 0.50146168 65280
-0.077465713 -0.23085 0.50113916 65280
-0.072502375 -0.23109193 0.50068694 65280
-0.067447931 -0.23033783 0.50100708 65280
-0.062388692 -0.23066293 0.50140053 65280
-0.057430953 -0.23033716 0.50134712 65280
-0.052806169 -0.23097143 0.50067008 65280
-0.048058748 -0.2309116 0.50029743 65280
-0.044152919 -0.23139426 0.49987903 65280
-0.31462273 -0.22542383 0.50758386 65280
-0.30234325 -0.22542383 0.50758386 65280
-0.29728699 -0.22542383 0.50758386 65280
-0.29150841 -0.22584902 0.50735778 65280
-0.287211 -0.22628506 0.50641805 65280
-0.28280979 -0.2262917 0.50598979 65280
-0.27763775 -0.22599468 0.50532407 65280
-0.2724452 -0.22591507 0.50546932 65280
-0.26729643 -0.22633258 0.50576216 65280
-0.26238197 -0.22612351 0.50596595 65280
-0.25757304 -0.22646001 0.50601351 65280
-0.2528981 -0.225912 0.50631756 65280
-0.24756432 -0.2259783 0.50680357 65280
-0.24229728 -0.22596645 0.50658745 65280
-0.23748446 -0.2261553 0.50568479 65280
-0.23263261 -0.22605063 0.5050987 65280
-0.22755177 -0.22559616 0.50443429 65280
-0.22252508 -0.22518238 0.50386155 65280
-0.21750855 -0.22602129 0.50338298 65280
-0.21241456 -0.22552282 0.50388181 65280
-0.20750847 -0.2255884 0.50409877 65280
-0.20248367 -0.22560073 0.50344485 65280
-0.19761389 -0.22632891 0.50257236 65280
-0.19115993 -0.22632891 0.50257236 65280
-0.18757439 -0.22632891 0.50257236 65280
-0.18259566 -0.22574717 0.50302321 65280
-0.1773542 -0.22608012 0.50351357 65280
-0.17239776 -0.22547317 0.50415993 65280
-0.16779993 -0.22547328 0.50415981 65280
-0.16280586 -0.22536452 0.50359988 65280
-0.15781444 -0.22601232 0.50274068 65280
-0.15387034 -0.22632891 0.50257236 65280
-0.13379136 -0.22632891 0.50257236 65280
-0.31239033 -0.22198267 0.50828093 65280
-0.30756029 -0.22176166 0.50804996 65280
-0.30278215 -0.22150242 0.50759256 65280
-0.2975561 -0.22117944 0.50697148 65280
-0.2926648 -0.22120132 0.50690329 65280
-0.28772196 -0.22162703 0.50609171 65280
-0.28248915 -0.22209908 0.50538772 65280
-0.27727568 -0.22194731 0.50504363 65280
-0.27219936 -0.22157359 0.50552553 65280
-0.26762825 -0.22186548 0.50544894 65280
-0.2627264 -0.22226611 0.50541204 65280
-0.25748476 -0.22283337 0.50528038 65280
-0.25209531 -0.22233397 0.50566721 65280
-0.24754281 -0.22166722 0.50618351 65280
-0.24263428 -0.22177748 0.50643384 65280
-0.23798805 -0.22167656 0.50561237 65280
-0.23275216 -0.22252989 0.5045923 65280
-0.3115429 -0.21719526 0.50810838 65280
-0.30758676 -0.21703708 0.50773937 65280
-0.30302867 -0.21746455 0.50728559 65280
-0.0884078 -0.29950795 0.47243977 65280
0.017736992 -0.29963815 0.47129458 65280
0.042383324 -0.29767799 0.47180831 65280
0.047842097 -0.29771304 0.47367728 65280
0.053423796 -0.29964131 0.47265199 65280
0.15336153 -0.29935557 0.47031224 65280
0.15707554 -0.29902324 0.47272894 65280
0.16124313 -0.29797983 0.47410175 65280
-0.088937208 -0.29498902 0.47342679 65280
0.019193744 -0.29589704 0.4735103 65280
0.024190212 -0.29355672 0.47248948 65280
0.027254872 -0.29669392 0.47478548 65280
0.15791528 -0.29415935 0.47254661 65280
0.16237226 -0.29481411 0.47451085 65280
0.16503105 -0.29567245 0.47589484 65280
0.16346614 -0.29074985 0.47435948 65280
0.16712771 -0.28974158 0.47664165 65280
0.17086177 -0.28923717 0.47931653 65280
0.1690677 -0.28486878 0.47767529 65280
0.17152618 -0.28615099 0.4798249 65280
0.17302327 -0.28120744 0.48083544 65280
0.17596367 -0.28151482 0.48342258 65280
-0.092086419 -0.27780047 0.48426497 65280
-0.089580275 -0.27488342 0.48355091 65280
0.17398091 -0.2769447 0.48132226 65280
0.17703082 -0.27623275 0.48396599 65280
-0.090063617 -0.27507952 0.4868443 65280
-0.087326229 -0.27271712 0.48413643 65280
0.17816155 -0.27317652 0.48445842 65280
0.181713 -0.27287519 0.48688379 65280
-0.082430564 -0.26880533 0.48753765 65280
-0.079431251 -0.26592237 0.48831558 65280
0.17976992 -0.2692776 0.48539892 65280
0.1830765 -0.26796412 0.48751307 65280
0.18731551 -0.26876295 0.48937923 65280
-0.076374225 -0.2640714 0.4909986 65280
-0.072908178 -0.26208186 0.49035755 65280
0.18383282 -0.26332682 0.48884618 65280
0.18786873 -0.2640996 0.49104646 65280
0.19126935 -0.26478305 0.49231902 65280
0.23937291 -0.26349601 0.49300337 65280
-0.071429133 -0.2611545 0.49273831 65280
-0.067557536 -0.25877127 0.49341226 65280
-0.06414932 -0.25736913 0.49229711 65280
0.18411168 -0.26033264 0.49015504 65280
0.18753763 -0.25914201 0.4921267 65280
0.19231342 -0.25972366 0.49408248 65280
0.19731434 -0.25863525 0.49494067 65280
0.2026393 -0.25886258 0.49546701 65280
0.2075603 -0.25870129 0.49506739 65280
0.21249987 -0.25881884 0.49484313 65280
0.21713264 -0.25906903 0.49487185 65280
0.22241046 -0.25876021 0.49495518 65280
0.22750777 -0.25876021 0.49495518 65280
0.23285446 -0.25909963 0.49466139 65280
0.23770243 -0.26004672 0.49427116 65280
0.24239071 -0.25968242 0.49442121 65280
0.24716122 -0.25962377 0.49468476 65280
0.25260961 -0.25909707 0.49431276 65280
0.25774917 -0.25915438 0.49361303 65280
0.26077083 -0.26045665 0.49348685 65280
-0.065282993 -0.25706071 0.49642506 65280
-0.062232137 -0.2552121 0.49602374 65280
-0.057979386 -0.25442511 0.4953995 65280
-0.053093418 -0.25354677 0.49489573 65280
0.18845344 -0.25458235 0.49321252 65280
0.19269818 -0.25445285 0.49453986 65280
0.19755638 -0.25498816 0.49526194 65280
0.20245843 -0.25468618 0.49530932 65280
0.20724812 -0.25468543 0.49470219 65280
0.21271491 -0.25440237 0.49444091 65280
0.21743691 -0.25455526 0.494737 65280
0.22220862 -0.25494313 0.49517271 65280
0.22752048 -0.2547451 0.49510807 65280
0.23261955 -0.25432009 0.49459782 65280
0.23767757 -0.25464317 0.49462166 65280
0.24277064 -0.25431991 0.49459806 65280
0.24751158 -0.25440237 0.49444091 65280
0.25178578 -0.25517854 0.49383941 65280
0.2573427 -0.25496569 0.4930087 65280
-0.062367629 -0.25319952 0.49847808 65280
-0.057508681 -0.25319952 0.49847808 65280
-0.051776744 -0.25276452 0.49842626 65280
-0.047814976 -0.25051969 0.49846157 65280
-0.04315256 -0.24853961 0.49707279 65280
0.19786058 -0.25138772 0.49491113 65280
0.20147872 -0.25138772 0.49491113 65280
0.22174026 -0.25138772 0.49491113 65280
0.22897652 -0.25138772 0.49491113 65280
0.23259465 -0.25138772 0.49491113 65280
0.23766005 -0.25138772 0.49491113 65280
0.24055456 -0.25138772 0.49491113 65280
-0.20667832 -0.24547718 0.50258416 65280
-0.20376296 -0.24547718 0.50258416 65280
-0.17679581 -0.24547718 0.50258416 65280
-0.17242275 -0.24547718 0.50258416 65280
-0.16732086 -0.24547718 0.50258416 65280
-0.16221894 -0.24612071 0.50224197 65280
-0.15737513 -0.24611689 0.50181925 65280
-0.15269804 -0.2460475 0.50209212 65280
-0.14795449 -0.24602878 0.50229084 65280
-0.14254023 -0.24547718 0.50258416 65280
-0.13889602 -0.24547718 0.50258416 65280
-0.13160761 -0.24547718 0.50258416 65280
-0.12671095 -0.24626201 0.50197804 65280
-0.12229284 -0.24637158 0.50142902 65280
-0.11744606 -0.24632834 0.50142378 65280
-0.1128481 -0.24628705 0.50158727 65280
-0.10745963 -0.24590115 0.50179249 65280
-0.10285381 -0.24564676 0.50226748 65280
-0.09698762 -0.24579895 0.50241303 65280
-0.092369989 -0.2464387 0.50164825 65280
-0.087563992 -0.24632701 0.50130862 65280
-0.082725845 -0.24661785 0.50160015 65280
-0.07765545 -0.24606583 0.50212961 65280
-0.072571419 -0.24612071 0.50224197 65280
-0.06715437 -0.24641898 0.50185686 65280
-0.06233044 -0.24661785 0.50160015 65280
-0.057533633 -0.24602444 0.50180775 65280
-0.052276064 -0.24595198 0.50148231 65280
-0.047649171 -0.24603006 0.50040263 65280
-0.042623624 -0.24535628 0.49873593 65280
-0.038765296 -0.24563739 0.49796864 65280
-0.24020505 -0.24161601 0.50463718 65280
-0.23714818 -0.24147269 0.50433588 65280
-0.23317623 -0.24118677 0.50458229 65280
-0.221984 -0.24161601 0.50463718 65280
-0.21723557 -0.24130338 0.50428867 65280
-0.21222436 -0.24193612 0.50361753 65280
-0.20751098 -0.24194312 0.50324357 65280
-0.20250095 -0.24167043 0.50340027 65280
-0.197604 -0.24190089 0.50382501 65280
-0.19247706 -0.24110016 0.50423187 65280
-0.18742028 -0.24129391 0.50438374 65280
-0.18225728 -0.24154875 0.50397599 65280
-0.17720772 -0.24182791 0.50339198 65280
-0.17273879 -0.24168342 0.50309128 65280
-0.1676338 -0.24158053 0.50254196 65280
-0.16256544 -0.24121334 0.50249904 65280
-0.15757217 -0.24154662 0.5023281 65280
-0.15255304 -0.24111864 0.5023939 65280
-0.14739895 -0.2417537 0.50290287 65280
-0.14248909 -0.24164648 0.5034014 65280
-0.13746859 -0.24194977 0.50316536 65280
-0.13237943 -0.24139778 0.5029735 65280
-0.12744878 -0.24128664 0.50226402 65280
-0.12259188 -0.24130583 0.5014044 65280
-0.11731616 -0.24095953 0.50130528 65280
-0.11236287 -0.24114424 0.50149029 65280
-0.10743352 -0.24087164 0.50187802 65280
-0.10234513 -0.24145497 0.50213408 65280
-0.097305641 -0.24093403 0.50200659 65280
-0.092508383 -0.24103393 0.50173771 65280
-0.087385342 -0.24090722 0.50147474 65280
-0.082367986 -0.24106973 0.50181305 65280
-0.077484556 -0.24135034 0.50206041 65280
-0.072464518 -0.24101454 0.50208199 65280
-0.067538813 -0.24157782 0.50239241 65280
-0.062518887 -0.24105686 0.50226492 65280
-0.057815377 -0.24113587 0.50149482 65280
-0.052798282 -0.24167758 0.50110376 65280
-0.047832653 -0.24223255 0.50006223 65280
-0.31163156 -0.23646778 0.50737453 65280
-0.30689406 -0.23678954 0.50720346 65280
-0.30306911 -0.23689798 0.50691926 65280
-0.29717085 -0.2372193 0.50683337 65280
-0.29288989 -0.23738711 0.50688571 65280
-0.28733683 -0.23732582 0.50691831 65280
-0.28247258 -0.23810749 0.50619382 65280
-0.27751476 -0.23762903 0.50607753 65280
-0.27231541 -0.237214 0.50584525 65280
-0.26758152 -0.23747204 0.50608552 65280
-0.26256406 -0.23818627 0.50589448 65280
-0.25742856 -0.238151 0.50581884 65280
-0.25255987 -0.23835741 0.50591683 65280
-0.24754725 -0.23808697 0.506078 65280
-0.24253899 -0.23818648 0.50589442 65280
-0.23785868 -0.23728858 0.50535256 65280
-0.23245379 -0.23763815 0.50521529 65280
-0.22754325 -0.2379902 0.5053454 65280
-0.22250174 -0.23754746 0.5050208 65280
-0.21747211 -0.2368107 0.50467539 65280
-0.21303138 -0.23671591 0.50447416 65280
-0.20755756 -0.236267 0.50351733 65280
-0.2025077 -0.2362906 0.50356764 65280
-0.19749612 -0.23655781 0.50382596 65280
-0.19259675 -0.23657492 0.50417155 65280
-0.18764222 -0.23672777 0.50449938 65280
-0.1825539 -0.23671593 0.50447416 65280
-0.17755257 -0.2366738 0.5040732 65280
-0.17235717 -0.23613915 0.50358534 65280
-0.16786422 -0.23654081 0.50312901 65280
-0.16250543 -0.23669246 0.50272477 65280
-0.15744005 -0.23669246 0.50272477 65280
-0.1524085 -0.23674594 0.50283796 65280
-0.147442 -0.23690628 0.5031774 65280
-0.14243677 -0.23701264 0.50340402 65280
-0.1373021 -0.23690628 0.5031774 65280
-0.1331746 -0.23690577 0.5028379 65280
-0.12849498 -0.23733138 0.50238502 65280
-0.099549927 -0.23733138 0.50238502 65280
-0.077841133 -0.23733138 0.50238502 65280
-0.067710362 -0.23733138 0.50238502 65280
-0.062644973 -0.23733138 0.50238502 65280
-0.059026841 -0.23733138 0.50238502 65280
-0.31626105 -0.23354611 0.50798416 65280
-0.31240588 -0.23373039 0.50803727 65280
-0.30727071 -0.2333504 0.50755972 65280
-0.30241737 -0.23318034 0.50753695 65280
-0.29735196 -0.23351638 0.50760531 65280
-0.29223916 -0.23318034 0.50753695 65280
-0.28727737 -0.23280263 0.5070582 65280
-0.28242075 -0.23221056 0.50669354 65280
-0.27709472 -0.23263997 0.5060122 65280
-0.27250323 -0.23247015 0.50598913 65280
-0.26739216 -0.23237677 0.50623918 65280
-0.26249319 -0.2317877 0.50638437 65280
-0.25768331 -0.23227654 0.50655383 65280
-0.25288421 -0.23227601 0.50655413 65280
-0.24748224 -0.23319709 0.50722605 65280
-0.24203365 -0.23259297 0.50660342 65280
-0.23770572 -0.23202239 0.50592858 65280
-0.23257497 -0.23251608 0.50539845 65280
-0.22778516 -0.23269723 0.50527382 65280
-0.22302915 -0.23328355 0.50482047 65280
-0.21750104 -0.23349783 0.50442338 65280
-0.21243566 -0.23349783 0.50442338 65280
-0.20881754 -0.23349783 0.50442338 65280
-0.18783237 -0.23349783 0.50442338 65280
-0.18276697 -0.23349783 0.50442338 65280
-0.17770159 -0.23349783 0.50442338 65280
-0.17335983 -0.23349783 0.50442338 65280
-0.31575856 -0.22879951 0.50805414 65280
-0.31267866 -0.22833902 0.50838608 65280
-0.3077051 -0.22810091 0.50826377 65280
-0.30247372 -0.22896874 0.50807744 65280
-0.29743686 -0.22868286 0.50811619 65280
-0.29286838 -0.22851983 0.50782531 65280
-0.28900412 -0.22951421 0.50729656 65280
-0.25140283 -0.22906309 0.50723439 65280
-0.24739243 -0.22923225 0.5072577 65280
-0.24377105 -0.22923228 0.50725776 65280
0.047042657 -0.29878008 0.47537503 65280
-0.091362886 -0.29816952 0.47853109 65280
0.02225825 -0.298022 0.47691071 65280
0.025183178 -0.298022 0.47691071 65280
0.1675777 -0.29717183 0.47830653 65280
0.17150316 -0.29610595 0.48076093 65280
0.16824684 -0.29362264 0.47811729 65280
0.17177962 -0.29273036 0.4808569 65280
0.1753315 -0.29182425 0.48360381 65280
0.17391126 -0.28768945 0.48240465 65280
0.17599936 -0.28871506 0.48412442 65280
0.17810576 -0.28402281 0.48564854 65280
0.18089308 -0.28223294 0.48757103 65280
-0.095281363 -0.2814357 0.48912752 65280
-0.092991211 -0.27828106 0.48853973 65280
0.17846888 -0.27943969 0.4856585 65280
0.18222389 -0.27942818 0.48857692 65280
0.18562655 -0.27883855 0.49050844 65280
-0.091442138 -0.27639973 0.49067259 65280
-0.088387683 -0.27408743 0.49105266 65280
0.18426126 -0.27579719 0.48910543 65280
0.18788365 -0.2753461 0.49066651 65280
0.19295014 -0.27480131 0.4919472 65280
0.1972761 -0.27413177 0.49263349 65280
0.20033377 -0.27364427 0.49327028 65280
0.22386532 -0.27364427 0.49327028 65280
0.22785728 -0.27420083 0.49297443 65280
0.2323955 -0.27416369 0.4929941 65280
0.23746951 -0.27396891 0.49309766 65280
0.24241424 -0.27453759 0.4924556 65280
0.24775273 -0.27476746 0.49201244 65280
0.25266749 -0.27556908 0.49176154 65280
0.25764143 -0.27488893 0.49248263 65280
0.26210412 -0.27429357 0.49292511 65280
-0.085997164 -0.27218872 0.49064651 65280
-0.08345487 -0.26963493 0.49268392 65280
0.18902788 -0.27218872 0.49064651 65280
0.19240388 -0.26983932 0.49176991 65280
0.19756667 -0.27027822 0.49324796 65280
0.20233221 -0.27072495 0.49449894 65280
0.20731971 -0.27007321 0.49516904 65280
0.21209955 -0.26974857 0.49534166 65280
0.21750665 -0.27023676 0.49492034 65280
0.22283228 -0.27068749 0.49399304 65280
0.22773784 -0.27040711 0.4934814 65280
0.23244667 -0.27029389 0.49357939 65280
0.23746163 -0.27051026 0.49339229 65280
0.24226671 -0.27024692 0.49318907 65280
0.24739899 -0.27024695 0.49318913 65280
0.2526314 -0.2703537 0.49338394 65280
0.25734538 -0.27024564 0.49349183 65280
0.26176482 -0.2706688 0.49357823 65280
-0.080726877 -0.26676264 0.49523041 65280
-0.078334413 -0.26534066 0.49542028 65280
0.1940331 -0.26557291 0.49378672 65280
0.1980412 -0.2660462 0.49466762 65280
0.20287505 -0.26662537 0.4957439 65280
0.20740128 -0.26678351 0.49603736 65280
0.21225667 -0.26656115 0.49590385 65280
0.21734858 -0.26637757 0.4952808 65280
0.2225018 -0.26627925 0.49481818 65280
0.2275987 -0.26588613 0.49467722 65280
0.23260817 -0.26610705 0.49449804 65280
0.2374264 -0.26554161 0.49372783 65280
0.24277616 -0.26576525 0.49383533 65280
0.24754442 -0.26573095 0.49408025 65280
0.25270945 -0.26587194 0.49462289 65280
0.25767484 -0.26604998 0.49436364 65280
0.26167461 -0.26596802 0.49452046 65280
-0.096752085 -0.26065856 0.50017488 65280
-0.092339911 -0.26065856 0.50017488 65280
-0.088663116 -0.26065856 0.50017488 65280
-0.076629713 -0.26296106 0.49876183 65280
-0.073301852 -0.26122206 0.49773601 65280
-0.069112815 -0.25904101 0.49707097 65280
0.1945321 -0.262678 0.49457085 65280
0.19762897 -0.26226789 0.49535528 65280
0.20242156 -0.26207668 0.4961648 65280
0.20749891 -0.26273581 0.49623907 65280
0.21285073 -0.26240966 0.49584615 65280
0.2179119 -0.2625609 0.49538818 65280
0.22247608 -0.26226789 0.49535528 65280
0.22759168 -0.26226786 0.49535522 65280
0.23237316 -0.26234987 0.49519834 65280
0.23542024 -0.262678 0.49457085 65280
0.24418199 -0.262678 0.49457085 65280
0.24807613 -0.26224819 0.49479938 65280
0.25186482 -0.26251391 0.49488458 65280
0.25732461 -0.262678 0.49457085 65280
-0.17666131 -0.25719571 0.50201613 65280
-0.17281291 -0.25800893 0.5011307 65280
-0.16766481 -0.25761145 0.50097144 65280
-0.16301009 -0.25772843 0.50130826 65280
-0.15768263 -0.25724143 0.50156713 65280
-0.15254974 -0.25726041 0.50160432 65280
-0.14752626 -0.25788915 0.50092673 65280
-0.14243513 -0.2575669 0.50091279 65280
-0.13781004 -0.25718451 0.50145578 65280
-0.13249063 -0.25780174 0.50169396 65280
-0.1276124 -0.25801083 0.50145686 65280
-0.12261131 -0.25777784 0.50129479 65280
-0.11763634 -0.25728229 0.50197011 65280
-0.11293003 -0.25676286 0.50224632 65280
-0.10778251 -0.25676286 0.50224632 65280
-0.10214474 -0.25762859 0.50178605 65280
-0.097578838 -0.25788832 0.50092721 65280
-0.092403814 -0.25729212 0.50037926 65280
-0.087823816 -0.25775719 0.50096262 65280
-0.082718752 -0.25787157 0.50118494 65280
-0.077571809 -0.25785884 0.5011602 65280
-0.072315335 -0.25745153 0.50037003 65280
-0.067148708 -0.25646985 0.49886283 65280
-0.28206307 -0.25156856 0.50500816 65280
-0.27691555 -0.25156856 0.50500816 65280
-0.27470946 -0.25156856 0.50500816 65280
-0.26588511 -0.25156856 0.50500816 65280
-0.26176709 -0.25182828 0.50487006 65280
-0.25698528 -0.25214353 0.50451374 65280
-0.25242463 -0.25199488 0.5042153 65280
-0.24750109 -0.25156856 0.50500816 65280
-0.24213873 -0.25199485 0.50421524 65280
-0.2377539 -0.25266865 0.5039199 65280
-0.23288153 -0.25262746 0.50413632 65280
-0.22794048 -0.25208801 0.50473195 65280
-0.22212751 -0.25243241 0.50438708 65280
-0.21733686 -0.25237975 0.50367075 65280
-0.21259932 -0.25272474 0.5033741 65280
-0.20742299 -0.2529881 0.50329506 65280
-0.2025377 -0.25295401 0.50322616 65280
-0.19758578 -0.25341472 0.50329852 65280
-0.19260336 -0.25238332 0.50364834 65280
-0.18760365 -0.25242037 0.50342274 65280
-0.18249191 -0.25278178 0.50332493 65280
-0.17743134 -0.25274637 0.50281388 65280
-0.17269255 -0.25273103 0.50240803 65280
-0.16767184 -0.25261059 0.5017035 65280
-0.16263013 -0.25220942 0.50183606 65280
-0.15750106 -0.25274011 0.50195843 65280
-0.15241994 -0.25227374 0.5019635 65280
-0.14750485 -0.25228161 0.50151449 65280
-0.14246073 -0.252422 0.5017938 65280
-0.13746312 -0.25265577 0.50225937 65280
-0.13241667 -0.25281519 0.50257576 65280
-0.12722258 -0.25269431 0.50233328 65280
-0.12257906 -0.25280321 0.50217372 65280
-0.1174563 -0.25237003 0.50201488 65280
-0.1125792 -0.25273204 0.50240761 65280
-0.10751925 -0.25290096 0.50274241 65280
-0.10236201 -0.25284392 0.50263119 65280
-0.097904183 -0.25269336 0.50233376 65280
-0.092621788 -0.25228176 0.50151438 65280
-0.08749903 -0.25228232 0.50151408 65280
-0.082394466 -0.2523385 0.50162572 65280
-0.077322997 -0.25250706 0.50196081 65280
-0.072486535 -0.25261062 0.50170356 65280
-0.067355357 -0.25182328 0.50107044 65280
-0.062479198 -0.25107375 0.50074095 65280
-0.057350315 -0.25144473 0.5009793 65280
-0.052510336 -0.25124857 0.50149745 65280
-0.30706534 -0.24767286 0.50707954 65280
-0.30265316 -0.24767286 0.50707954 65280
-0.29714757 -0.24801664 0.50644374 65280
-0.2922821 -0.24826491 0.50619847 65280
-0.28729466 -0.2487932 0.50569105 65280
-0.28229624 -0.2485314 0.50549054 65280
-0.27730429 -0.24826911 0.50529021 65280
-0.27255675 -0.24874929 0.50560117 65280
-0.26754496 -0.24853319 0.5057984 65280
-0.26258135 -0.24862908 0.50569022 65280
-0.25750452 -0.24839546 0.50488323 65280
-0.25248471 -0.24808995 0.50459272 65280
-0.24764852 -0.24796055 0.5046615 65280
-0.24238768 -0.24816713 0.50444865 65280
-0.23713684 -0.24769525 0.50412303 65280
-0.23235498 -0.2484075 0.50493866 65280
-0.22749546 -0.24835645 0.50547028 65280
-0.22266303 -0.24833427 0.50509185 65280
-0.21755925 -0.24799792 0.50407529 65280
-0.2124619 -0.24755971 0.50351536 65280
-0.20778219 -0.24795344 0.50337088 65280
-0.20226172 -0.24786201 0.50346804 65280
-0.19750471 -0.24756281 0.50385368 65280
-0.19247432 -0.24804628 0.50420398 65280
-0.18726337 -0.24756229 0.50385386 65280
-0.18251263 -0.24759835 0.50359565 65280
-0.17785786 -0.24796623 0.50310111 65280
-0.17254992 -0.24794844 0.50288814 65280
-0.16776985 -0.24807225 0.50290322 65280
-0.16306438 -0.24841464 0.50260782 65280
-0.15739813 -0.24849501 0.50211209 65280
-0.15228711 -0.24849501 0.50211209 65280
-0.14687608 -0.24828361 0.50250757 65280
-0.14252298 -0.24819604 0.5029183 65280
-0.13727938 -0.24764401 0.50331968 65280
-0.13298471 -0.24795341 0.50337088 65280
-0.12857647 -0.24815676 0.50274497 65280
-0.11943056 -0.24849501 0.50211209 65280
-0.11139897 -0.24849501 0.50211209 65280
-0.10711234 -0.24871691 0.50256038 65280
-0.10202796 -0.24814577 0.50305283 65280
-0.09792275 -0.24824552 0.50292432 65280
-0.09387546 -0.24849501 0.50211209 65280
-0.080002688 -0.24849501 0.50211209 65280
-0.077082112 -0.24849501 0.50211209 65280
-0.072745383 -0.24864292 0.50241095 65280
-0.069050506 -0.24849501 0.50211209 65280
-0.057368178 -0.24849501 0.50211209 65280
-0.0529873 -0.24849501 0.50211209 65280
-0.32030183 -0.24572501 0.50811523 65280
-0.31753719 -0.24483506 0.50795919 65280
-0.31239244 -0.24464288 0.50755811 65280
-0.30725682 -0.2444488 0.5071578 65280
-0.30247369 -0.24433772 0.50692755 65280
-0.29742315 -0.24403541 0.50663519 65280
-0.29261321 -0.2440626 0.50635654 65280
-0.2877894 -0.24407603 0.50604731 65280
-0.28251168 -0.24361539 0.50573623 65280
-0.27769196 -0.2438207 0.50585598 65280
-0.27267808 -0.24391755 0.50605613 65280
-0.26757944 -0.24433739 0.5065878 65280
-0.26251039 -0.24399011 0.50620633 65280
-0.25731117 -0.24351376 0.50555354 65280
-0.25246727 -0.24348322 0.50515449 65280
-0.24746281 -0.24359165 0.50537992 65280
-0.24254811 -0.24377123 0.5053317 65280
-0.23719561 -0.24484536 0.50461894 65280
-0.23221083 -0.24382372 0.50502056 65280
-0.22764587 -0.24394639 0.50577658 65280
-0.22267927 -0.24398699 0.50535852 65280
-0.21740027 -0.24477254 0.50446886 65280
-0.19609585 -0.24462694 0.50416875 65280
-0.19261631 -0.24452302 0.50479031 65280
-0.1878399 -0.24445641 0.50448591 65280
-0.18295324 -0.24462694 0.50416875 65280
-0.31713521 -0.23925304 0.50815874 65280
-0.31274682 -0.23989818 0.50781572 65280
-0.30807284 -0.24008963 0.50746214 65280
-0.30242851 -0.2398511 0.50733733 65280
-0.29809177 -0.24041462 0.50686151 65280
-0.29216215 -0.24020627 0.50651926 65280
-0.28765613 -0.24024311 0.50649971 65280
-0.28079277 -0.24075885 0.50622547 65280
-0.27714205 -0.24075885 0.50622547 65280
-0.27276114 -0.24075885 0.50622547 65280
-0.26838028 -0.24075885 0.50622547 65280
-0.24501562 -0.24075885 0.50622547 65280
0.17304578 -0.29907885 0.48217338 65280
0.17618489 -0.29930058 0.48453635 65280
0.17416903 -0.29494339 0.48307788 65280
0.17765385 -0.29494223 0.48590994 65280
0.17845777 -0.2904509 0.486316 65280
0.18146907 -0.29108021 0.48881292 65280
-0.097180955 -0.28463912 0.49025568 65280
0.18246415 -0.28626031 0.48947456 65280
0.18606532 -0.28534326 0.4919576 65280
0.19840038 -0.28524077 0.49276716 65280
0.2013679 -0.28524077 0.49276716 65280
0.21843116 -0.28524077 0.49276716 65280
0.2479814 -0.28584617 0.4921217 65280
0.25257963 -0.28623474 0.49084464 65280
0.25750345 -0.28679213 0.49089685 65280
0.26268724 -0.28627181 0.4915897 65280
0.26575568 -0.28638375 0.49178189 65280
-0.096813068 -0.28176299 0.49325716 65280
0.18480888 -0.28243369 0.49086201 65280
0.1879503 -0.28141564 0.49205044 65280
0.19240114 -0.28200862 0.49278685 65280
0.19750071 -0.28151017 0.49248558 65280
0.2026625 -0.28201455 0.49309835 65280
0.20741901 -0.28230602 0.49330837 65280
0.21241836 -0.28199449 0.49336067 65280
0.21754308 -0.28228939 0.49330679 65280
0.22249071 -0.28212544 0.49329105 65280
0.22743601 -0.28196132 0.49327534 65280
0.23260303 -0.28230593 0.49330819 65280
0.23755619 -0.28194508 0.49327368 65280
0.24253136 -0.28206381 0.49291188 65280
0.24749233 -0.28119388 0.49193302 65280
0.25227234 -0.28111273 0.49122459 65280
0.25713035 -0.28113103 0.49155465 65280
0.26252773 -0.28137961 0.49198872 65280
-0.09668956 -0.27810547 0.49607566 65280
-0.093141466 -0.27649385 0.49502698 65280
-0.089873999 -0.27509984 0.49589404 65280
0.19258566 -0.27803203 0.49206978 65280
0.19780107 -0.27746367 0.49256083 65280
0.20245914 -0.27648139 0.4934091 65280
0.20751396 -0.27640763 0.49399057 65280
0.21273993 -0.27687114 0.49416807 65280
0.21747664 -0.27638331 0.49399194 65280
0.22233205 -0.27671018 0.49358165 65280
0.2271708 -0.27731374 0.49293709 65280
0.23279391 -0.27738354 0.49291801 65280
0.23749571 -0.27707833 0.49300164 65280
0.24225868 -0.27768049 0.49244553 65280
0.24709885 -0.27803203 0.49206978 65280
0.25814882 -0.27803203 0.49206978 65280
0.26256883 -0.2773816 0.49241564 65280
-0.10206109 -0.27213994 0.499733 65280
-0.097424343 -0.27328625 0.49912348 65280
-0.092416644 -0.27345005 0.49903646 65280
-0.087340474 -0.27230141 0.49738201 65280
0.20363563 -0.27282855 0.49483654 65280
0.20742419 -0.27227104 0.49513298 65280
0.21253784 -0.27225864 0.4953284 65280
0.21719027 -0.27256837 0.49497488 65280
-0.18144228 -0.2682097 0.50182277 65280
-0.17773287 -0.2682097 0.50182277 65280
-0.17231131 -0.26785615 0.50116128 65280
-0.16734654 -0.2682097 0.50182277 65280
-0.16363716 -0.2682097 0.50182277 65280
-0.15547648 -0.2682097 0.50182277 65280
-0.15250896 -0.2682097 0.50182277 65280
-0.1473158 -0.2682097 0.50182277 65280
-0.14138076 -0.2682097 0.50182277 65280
-0.13767134 -0.2682097 0.50182277 65280
-0.132061 -0.26856914 0.5011462 65280
-0.12721045 -0.26936266 0.5008322 65280
-0.12272581 -0.26862904 0.50103354 65280
-0.1180857 -0.26847169 0.50168341 65280
-0.11207648 -0.26853719 0.5016486 65280
-0.10739261 -0.26923817 0.50099277 65280
-0.1024208 -0.26892805 0.50030822 65280
-0.097381085 -0.26888898 0.49995142 65280
-0.092239946 -0.26900759 0.50017154 65280
-0.087002948 -0.26883584 0.49985382 65280
-0.083133563 -0.26755393 0.49809417 65280
-0.26675847 -0.26296934 0.50460911 65280
-0.2623072 -0.26296934 0.50460911 65280
-0.25859782 -0.26296934 0.50460911 65280
-0.24005081 -0.26296934 0.50460911 65280
-0.2370833 -0.26296934 0.50460911 65280
-0.232632 -0.26296934 0.50460911 65280
-0.22743884 -0.26296934 0.50460911 65280
-0.22224569 -0.26296934 0.50460911 65280
-0.21734507 -0.26330855 0.50397575 65280
-0.21241443 -0.26339334 0.50381744 65280
-0.20724638 -0.26407379 0.50351852 65280
-0.2028379 -0.26412538 0.50361687 65280
-0.19758984 -0.26339334 0.50381744 65280
-0.19213887 -0.26330855 0.50397575 65280
-0.18743882 -0.26394239 0.503667 65280
-0.18236038 -0.26431206 0.50250113 65280
-0.17719127 -0.26364034 0.50146443 65280
-0.17231746 -0.26346198 0.50076073 65280
-0.16766705 -0.2636185 0.50069195 65280
-0.1627977 -0.26368874 0.50150841 65280
-0.15762302 -0.26445857 0.50219923 65280
-0.15252076 -0.26391906 0.50175184 65280
-0.14760381 -0.26356927 0.50132799 65280
-0.14258868 -0.26402617 0.50137752 65280
-0.13745323 -0.26352045 0.50132281 65280
-0.13257666 -0.26365626 0.50112933 65280
-0.12751423 -0.2637006 0.50089806 65280
-0.12244558 -0.26346117 0.50112402 65280
-0.11736056 -0.26410452 0.50166482 65280
-0.11237046 -0.26406965 0.50228161 65280
-0.10763258 -0.26404384 0.50186694 65280
-0.10265542 -0.26392499 0.50118864 65280
-0.097522013 -0.26353803 0.50018829 65280
-0.092648886 -0.26413867 0.50046384 65280
-0.087290749 -0.26381856 0.50075984 65280
-0.082227133 -0.26318911 0.50024509 65280
-0.07875257 -0.26263839 0.50025475 65280
-0.29272431 -0.2590391 0.50669885 65280
-0.28703278 -0.25938109 0.506064 65280
-0.28244272 -0.25959262 0.5059191 65280
-0.27728969 -0.25934044 0.5058915 65280
-0.27232164 -0.25999412 0.50531018 65280
-0.26756191 -0.2596893 0.50471711 65280
-0.26281253 -0.25938448 0.50412416 65280
-0.25776336 -0.25951165 0.50437111 65280
-0.25270709 -0.26006976 0.50513142 65280
-0.24757305 -0.25977397 0.50517547 65280
-0.24259125 -0.25989318 0.50511217 65280
-0.23772852 -0.25943565 0.50422293 65280
-0.23264207 -0.25942901 0.50391746 65280
-0.22763376 -0.25925937 0.50420332 65280
-0.22268614 -0.25961193 0.50424224 65280
-0.2176145 -0.25925216 0.50386733 65280
-0.21247546 -0.25880203 0.50331384 65280
-0.2075315 -0.25915423 0.50335318 65280
-0.20239057 -0.25881794 0.50331581 65280
-0.19745892 -0.25897807 0.50333357 65280
-0.19252007 -0.2592825 0.50392669 65280
-0.18716381 -0.25902864 0.50343251 65280
-0.18259253 -0.258825 0.50303745 65280
-0.17850082 -0.25902927 0.50236255 65280
-0.16101347 -0.25981984 0.50175339 65280
-0.15733014 -0.25981984 0.50175339 65280
-0.15291016 -0.25981984 0.50175339 65280
-0.13744019 -0.25981984 0.50175339 65280
-0.13375688 -0.25981984 0.50175339 65280
-0.12049691 -0.25981984 0.50175339 65280
-0.11718191 -0.2594946 0.5019263 65280
-0.11244268 -0.25928438 0.5023213 65280
-0.10730064 -0.2593227 0.50239533 65280
-0.10379916 -0.25938621 0.50198394 65280
-0.32172775 -0.25571561 0.50801295 65280
-0.31731096 -0.25541416 0.50797915 65280
-0.31248024 -0.25553972 0.50799316 65280
-0.30764768 -0.25566533 0.50800729 65280
-0.30248827 -0.25541416 0.50797915 65280
-0.29720876 -0.2558063 0.50728524 65280
-0.29256931 -0.25504589 0.50655693 65280
-0.28767195 -0.25457862 0.50607717 65280
-0.28221381 -0.25503173 0.50563782 65280
-0.27740526 -0.25476313 0.50546145 65280
-0.27250427 -0.25456768 0.50567853 65280
-0.26786342 -0.25443029 0.50533986 65280
-0.26281232 -0.25475225 0.50478774 65280
-0.25715998 -0.25542444 0.50425237 65280
-0.25197443 -0.25511143 0.50468165 65280
-0.24764079 -0.25506854 0.50541234 65280
-0.24260715 -0.25561851 0.5046345 65280
-0.23688994 -0.25591719 0.50382847 65280
-0.23210162 -0.25559199 0.50400138 65280
-0.22709858 -0.25496709 0.50456017 65280
-0.22245133 -0.25539684 0.50410515 65280
-0.21773666 -0.25591719 0.50382847 65280
-0.21233444 -0.25591719 0.50382847 65280
-0.20889668 -0.25591719 0.50382847 65280
-0.19269006 -0.25591719 0.50382847 65280
-0.18753341 -0.25591719 0.50382847 65280
-0.18311343 -0.25591719 0.50382847 65280
-0.32141766 -0.25131235 0.50835329 65280
-0.31760484 -0.25082299 0.50823599 65280
-0.31242228 -0.25054154 0.50814295 65280
-0.30723017 -0.25120807 0.50759083 65280
-0.30249172 -0.25098437 0.50747055 65280
-0.2979587 -0.25146708 0.50716549 65280
-0.29403237 -0.25129604 0.50666314 65280
0.18252212 -0.29751104 0.48978221 65280
0.1859242 -0.29699841 0.49217835 65280
0.25354338 -0.29719949 0.49178833 65280
0.25754601 -0.2974005 0.49139825 65280
0.26242679 -0.29726914 0.49138719 65280
0.26709494 -0.29792729 0.49130687 65280
-0.099790193 -0.29120383 0.49412683 65280
0.18404669 -0.29190421 0.49092299 65280
0.18704858 -0.29282779 0.49310145 65280
0.1926598 -0.29171205 0.49498916 65280
0.19786957 -0.2925505 0.49383545 65280
