# .PCD v0.7 - Point Cloud Data file format
VERSION 0.7
FIELDS x y z rgba
SIZE 4 4 4 4
TYPE F F F U
COUNT 1 1 1 1
WIDTH 1074
HEIGHT 1
VIEWPOINT 0 0 0 1 0 0 0
POINTS 1074
DATA ascii
-0.13786122 -0.01794225 0.50235963 16711680
0.4617416 -0.022626579 0.50428414 16711680
0.45838144 -0.024418414 0.50636947 16711680
0.45183009 -0.024027288 0.50672776 16711680
0.44744486 -0.022808909 0.50585341 16711680
0.44277668 -0.023412406 0.50356948 16711680
0.40710378 -0.022162795 0.50347131 16711680
0.40179718 -0.024662077 0.50366759 16711680
0.39925918 -0.022308171 0.50581366 16711680
0.39200726 -0.024809659 0.50601119 16711680
0.38743234 -0.024288118 0.50648898 16711680
0.36615899 -0.024027348 0.50672776 16711680
0.36226484 -0.024027348 0.50672776 16711680
0.35739714 -0.024027348 0.50672776 16711680
0.35447654 -0.024027348 0.50672776 16711680
0.22586243 -0.023558974 0.50591242 16711680
0.22349203 -0.023412466 0.50356948 16711680
0.18302916 -0.022831321 0.50533676 16711680
-0.094440803 -0.025446653 0.50295222 16711680
-0.13786122 -0.023092866 0.50509828 16711680
0.45741597 -0.027851522 0.50611854 16711680
0.4525578 -0.028023183 0.50704044 16711680
0.44788507 -0.028163254 0.50666177 16711680
0.44270411 -0.027969778 0.50528473 16711680
0.39598113 -0.02637434 0.50457805 16711680
0.3930735 -0.027229309 0.50503266 16711680
0.3868224 -0.028866649 0.50477064 16711680
0.38254714 -0.027826607 0.50572771 16711680
0.37739235 -0.027990997 0.50657028 16711680
0.37297985 -0.02786684 0.50718373 16711680
0.36768562 -0.027991951 0.5065707 16711680
0.36254472 -0.029269099 0.50589073 16711680
0.35766134 -0.02861464 0.50599575 16711680
0.35240972 -0.028811574 0.50606269 16711680
0.34748858 -0.028333962 0.50675255 16711680
0.34251443 -0.027835488 0.50671411 16711680
0.33743843 -0.027643085 0.50714022 16711680
0.3322399 -0.027711272 0.5073275 16711680
0.32757649 -0.027968287 0.5068413 16711680
0.32263365 -0.028162718 0.50666153 16711680
0.31726331 -0.027835488 0.50671399 16711680
0.31233579 -0.028801024 0.50632143 16711680
0.30742276 -0.027383804 0.50737995 16711680
0.30271974 -0.027854502 0.50819641 16711680
0.26769716 -0.027854502 0.50819641 16711680
0.2626999 -0.028243423 0.50783688 16711680
0.25783873 -0.028243423 0.50783694 16711680
0.25306046 -0.027984202 0.50807655 16711680
0.24738766 -0.027465701 0.50855595 16711680
0.24349351 -0.027465701 0.50855595 16711680
0.22726911 -0.027712166 0.50732803 16711680
0.22317356 -0.027156651 0.50386143 16711680
0.18297659 -0.027384996 0.50738055 16711680
-0.094654813 -0.028086662 0.50548851 16711680
-0.13799682 -0.026996136 0.50774002 16711680
0.45557433 -0.032286525 0.50658906 16711680
0.45266932 -0.032286525 0.50658906 16711680
0.44734344 -0.032714069 0.50681639 16711680
0.44395426 -0.032286525 0.50658906 16711680
0.43620756 -0.032286525 0.50658906 16711680
0.34518394 -0.032286584 0.50658906 16711680
0.34324726 -0.032286584 0.50658906 16711680
0.33646891 -0.032286584 0.50658906 16711680
0.33259559 -0.032286584 0.50658906 16711680
0.32969058 -0.032286584 0.50658906 16711680
0.30741882 -0.032286584 0.50658906 16711680
0.3025077 -0.032195628 0.50767326 16711680
0.29818523 -0.031247914 0.50943446 16711680
0.29299217 -0.031290591 0.51002342 16711680
0.28817591 -0.031161726 0.51014376 16711680
0.28224051 -0.030846417 0.50959843 16711680
0.27780926 -0.031144083 0.50915277 16711680
0.27258933 -0.031265974 0.50853801 16711680
0.26754636 -0.032692254 0.50771081 16711680
0.26217133 -0.031511188 0.50730938 16711680
0.25732315 -0.031511188 0.50730938 16711680
0.25199014 -0.031938672 0.50753665 16711680
0.24762677 -0.032366157 0.50776398 16711680
0.24281788 -0.032237291 0.50788414 16711680
0.23730567 -0.031204879 0.50884533 16711680
0.23250493 -0.031011403 0.50902563 16711680
0.22823469 -0.032366753 0.50776428 16711680
0.18162683 -0.030791104 0.50881404 16711680
0.177194 -0.032564044 0.5105117 16711680
0.17228198 -0.033393979 0.51057559 16711680
0.16751122 -0.03173399 0.51044798 16711680
0.16269006 -0.030903995 0.51038414 16711680
0.15724266 -0.03105408 0.50961453 16711680
0.15192243 -0.030430973 0.50956643 16711680
0.14760938 -0.030834794 0.50944138 16711680
0.14217663 -0.030559838 0.50944614 16711680
0.13728149 -0.030817568 0.50920564 16711680
0.13233018 -0.031591833 0.50848478 16711680
0.12755914 -0.030817568 0.50920564 16711680
0.12318408 -0.031247318 0.50943416 16711680
0.11888096 -0.030903995 0.51038414 16711680
0.11301749 -0.03173399 0.51044798 16711680
0.10668424 -0.030860782 0.50979489 16711680
0.10229315 -0.03062427 0.509386 16711680
0.097419828 -0.031677186 0.50966263 16711680
0.092595495 -0.030903995 0.51038414 16711680
0.087727815 -0.030903995 0.51038414 16711680
0.082848869 -0.031290591 0.51002342 16711680
0.077964418 -0.032192588 0.50918168 16711680
0.072141699 -0.030817509 0.5092057 16711680
0.067280523 -0.030817568 0.50920564 16711680
0.062419344 -0.030817509 0.5092057 16711680
0.057558164 -0.031677127 0.50966269 16711680
0.052696988 -0.031677186 0.50966263 16711680
0.047835808 -0.031677127 0.50966269 16711680
0.042945184 -0.030903995 0.51038414 16711680
0.037141215 -0.033394039 0.51057553 16711680
0.032280035 -0.033393979 0.51057559 16711680
0.026395075 -0.030903995 0.51038414 16711680
0.022557676 -0.031677127 0.50966269 16711680
0.017759737 -0.032450318 0.50894123 16711680
0.012799799 -0.031290591 0.51002342 16711680
0.0079373196 -0.032149017 0.51047981 16711680
0.0030709431 -0.033008575 0.51093686 16711680
-0.028060101 -0.033008575 0.51093686 16711680
-0.032017052 -0.032623172 0.51129824 16711680
-0.089455649 -0.032623172 0.51129824 16711680
-0.09339729 -0.031798542 0.50904781 16711680
-0.13772562 -0.031205297 0.50884557 16711680
-0.1400795 -0.032623172 0.51129824 16711680
0.2967521 -0.035466015 0.50963867 16711680
0.29223004 -0.035790741 0.50958484 16711680
0.28738186 -0.035790741 0.50958484 16711680
0.28253371 -0.034935713 0.50913024 16711680
0.27749455 -0.035449624 0.5086484 16711680
0.27269867 -0.035321116 0.50876886 16711680
0.23769861 -0.03570658 0.50840747 16711680
0.23285693 -0.03570658 0.50840747 16711680
0.18056674 -0.03570658 0.50840747 16711680
0.17813617 -0.036076486 0.50973678 16711680
0.17341277 -0.037267625 0.51008701 16711680
0.16714695 -0.035791278 0.50958514 16711680
0.16197556 -0.035505712 0.50943327 16711680
0.15745059 -0.034935713 0.50913024 16711680
0.15254369 -0.036176145 0.50922346 16711680
0.14809719 -0.035928011 0.50920486 16711680
0.14285384 -0.036176145 0.50922346 16711680
0.13849372 -0.035748601 0.50899619 16711680
0.13214992 -0.03570658 0.50840747 16711680
0.12730825 -0.03570658 0.50840747 16711680
0.12202031 -0.035748601 0.50899619 16711680
0.11769551 -0.035790682 0.50958484 16711680
0.11245947 -0.035962164 0.50967598 16711680
0.10751434 -0.035363257 0.50935757 16711680
0.10213149 -0.03570658 0.50840747 16711680
0.097333148 -0.034935713 0.50913024 16711680
0.092475429 -0.035983443 0.50940418 16711680
0.087636784 -0.035790741 0.50958484 16711680
0.083111823 -0.035505772 0.50943333 16711680
0.077929728 -0.035449624 0.50864851 16711680
0.071725726 -0.036390543 0.50877118 16711680
0.067272902 -0.036176145 0.50922346 16711680
0.062429696 -0.03570658 0.50840747 16711680
0.057578065 -0.034935713 0.50913024 16711680
0.052729882 -0.034935713 0.50913024 16711680
0.04756657 -0.035762668 0.50919241 16711680
0.04302818 -0.035662651 0.50970542 16711680
0.03684327 -0.03763938 0.51011479 16711680
0.032389391 -0.037887216 0.51013327 16711680
0.027511403 -0.035662651 0.50970542 16711680
0.022671159 -0.034935713 0.50913024 16711680
0.017886218 -0.03570658 0.50840747 16711680
0.012029707 -0.035762668 0.50919241 16711680
0.007739801 -0.036304176 0.50985783 16711680
0.0022230297 -0.036735594 0.5112198 16711680
-0.0027663782 -0.036444604 0.51276386 16711680
-0.017376482 -0.036316872 0.5128848 16711680
-0.022724427 -0.036293268 0.51189065 16711680
-0.027315781 -0.03641057 0.51127356 16711680
-0.032751173 -0.036607862 0.51134062 16711680
-0.037755601 -0.035776615 0.51212555 16711680
-0.042630933 -0.036572337 0.51264298 16711680
-0.047593623 -0.036061466 0.51312643 16711680
-0.052461296 -0.036061466 0.51312643 16711680
-0.057328977 -0.036061466 0.51312643 16711680
-0.062196657 -0.036061466 0.51312643 16711680
-0.068037868 -0.036061466 0.51312643 16711680
-0.071932003 -0.036061466 0.51312643 16711680
-0.078746751 -0.036061466 0.51312643 16711680
-0.082541689 -0.036444604 0.51276386 16711680
-0.087167919 -0.036480129 0.51146144 16711680
-0.092654407 -0.036866963 0.50983346 16711680
-0.13879421 -0.036135614 0.5105232 16711680
-0.14202657 -0.036061466 0.51312643 16711680
-0.15955022 -0.036061466 0.51312643 16711680
-0.1623183 -0.036444604 0.51276386 16711680
-0.16702829 -0.036827743 0.51240128 16711680
-0.17188947 -0.036827683 0.51240134 16711680
-0.17610031 -0.036061466 0.51312643 16711680
0.0013811812 -0.040454507 0.51149833 16711680
-0.0025170818 -0.041118503 0.51213449 16711680
-0.0073875636 -0.040927529 0.51231617 16711680
-0.012261309 -0.040736556 0.51249772 16711680
-0.016599111 -0.040500045 0.51208884 16711680
-0.02278392 -0.040836513 0.51113516 16711680
-0.027625605 -0.040836513 0.51113516 16711680
-0.032565407 -0.040691018 0.51190728 16711680
-0.037446298 -0.04007256 0.51186156 16711680
-0.042682327 -0.040756583 0.51222515 16711680
-0.047218472 -0.040546119 0.51267964 16711680
-0.052147657 -0.040164709 0.51304305 16711680
-0.057917967 -0.04041934 0.51280093 16711680
-0.06265682 -0.040927529 0.51231611 16711680
-0.067564651 -0.040673614 0.5125587 16711680
-0.07267572 -0.039592862 0.51358843 16711680
-0.077486426 -0.039783835 0.51340693 16711680
-0.083018333 -0.040927887 0.51231635 16711680
-0.087662458 -0.040836513 0.51113516 16711680
-0.13898429 -0.040836513 0.51113516 16711680
-0.1423756 -0.040355742 0.51286143 16711680
-0.14752622 -0.040412903 0.51408106 16711680
-0.15275548 -0.040299237 0.51470023 16711680
-0.15705697 -0.040037811 0.51316428 16711680
-0.16208048 -0.04090935 0.51207995 16711680
-0.16737755 -0.04007256 0.51186156 16711680
-0.17263038 -0.040691018 0.51190728 16711680
-0.1773176 -0.040355682 0.51286149 16711680
-0.18258363 -0.039974153 0.51407439 16711680
-0.18736124 -0.041309178 0.51450098 16711680
-0.19230643 -0.041118801 0.51468283 16711680
-0.19768012 -0.041442513 0.51462859 16711680
-0.20211741 -0.0409289 0.5148651 16711680
-0.20761815 -0.042484581 0.51465404 16711680
-0.21253842 -0.042358041 0.51477557 16711680
-0.21758458 -0.041978359 0.51513988 16711680
-0.22244576 -0.041978359 0.51513994 16711680
-0.22730693 -0.041978359 0.51513988 16711680
-0.2323674 -0.041598678 0.5155043 16711680
-0.23729759 -0.041472077 0.51562583 16711680
-0.2423915 -0.041099608 0.51444626 16711680
-0.24797067 -0.040183604 0.51327956 16711680
-0.25288907 -0.039382756 0.51353335 16711680
-0.25712216 -0.04140532 0.51483518 16711680
-0.068295732 -0.044256449 0.51295358 16711680
-0.072261781 -0.043876767 0.513318 16711680
-0.077136964 -0.043750167 0.51343942 16711680
-0.14285763 -0.044256449 0.51295358 16711680
-0.14694414 -0.044542491 0.51395512 16711680
-0.15268698 -0.045872509 0.51437914 16711680
-0.15641434 -0.045111477 0.51340818 16711680
-0.17911834 -0.044573307 0.51349962 16711680
-0.18245816 -0.04489094 0.51404601 16711680
-0.18773994 -0.045209348 0.51459283 16711680
-0.19241482 -0.045587897 0.51422781 16711680
-0.19708452 -0.045966446 0.51386279 16711680
-0.20289451 -0.045966446 0.51386279 16711680
-0.20791858 -0.045587897 0.51422781 16711680
-0.21295047 -0.045209348 0.51459283 16711680
-0.21779865 -0.045209408 0.51459283 16711680
-0.22264683 -0.045209348 0.51459283 16711680
-0.22704154 -0.046031713 0.51465255 16711680
-0.23227718 -0.0461905 0.51492572 16711680
-0.23719072 -0.046064973 0.51504773 16711680
-0.24231794 -0.045159817 0.51400018 16711680
-0.24695385 -0.044683933 0.51318085 16711680
-0.25249326 -0.043876767 0.513318 16711680
-0.25744629 -0.046254218 0.51486528 16711680
-0.26230741 -0.044553041 0.51650894 16711680
-0.26716861 -0.045412064 0.51696569 16711680
-0.27233103 -0.044908881 0.51745319 16711680
-0.27786323 -0.045412123 0.51696563 16711680
-0.28272438 -0.045412123 0.51696569 16711680
-0.28758553 -0.045412123 0.51696563 16711680
-0.29244673 -0.045412123 0.51696569 16711680
-0.29730788 -0.045412123 0.51696563 16711680
-0.30119684 -0.045412123 0.51696569 16711680
-0.26389971 -0.049386382 0.51568121 16711680
-0.26799706 -0.049010158 0.51604748 16711680
-0.27209827 -0.048633933 0.51641369 16711680
-0.27694646 -0.048633993 0.51641369 16711680
-0.28276429 -0.048633993 0.51641369 16711680
-0.28737545 -0.049010217 0.51604748 16711680
-0.29230177 -0.048884809 0.51616955 16711680
-0.2973088 -0.048633993 0.51641369 16711680
-0.30021772 -0.048633993 0.51641369 16711680
0.17089951 0.0042104125 0.4951112 16711680
0.16824237 0.0058439374 0.49650773 16711680
0.22312428 0.00065201521 0.49926838 16711680
0.17564067 -5.3882599e-05 0.49624607 16711680
0.1729978 0.0032988191 0.49672845 16711680
0.4729282 -0.004419744 0.49970004 16711680
0.22301942 -0.0023465753 0.50029647 16711680
0.17781782 -0.0014281273 0.49867555 16711680
-0.089868098 -0.0035013556 0.49807909 16711680
0.47151124 -0.0075049996 0.502473 16711680
0.43790486 -0.0076049566 0.50177115 16711680
0.43285167 -0.0062704682 0.50294918 16711680
0.4289315 -0.0062704682 0.50294918 16711680
0.42453393 -0.0087994933 0.50316131 16711680
0.22280972 -0.0066074133 0.5014295 16711680
0.17969774 -0.0061458945 0.5006178 16711680
-0.093006611 -0.0078719258 0.50153553 16711680
0.47043347 -0.012120068 0.50266182 16711680
0.46777326 -0.011882365 0.50434756 16711680
0.46323273 -0.012327731 0.50616986 16711680
0.45735252 -0.013193011 0.50662994 16711680
0.45323637 -0.011808455 0.50589377 16711680
0.4490023 -0.012256205 0.50499928 16711680
0.44454792 -0.014637649 0.50286782 16711680
0.42112154 -0.011323988 0.50337106 16711680
0.41623354 -0.01305002 0.50428879 16711680
0.41129088 -0.013193011 0.50662994 16711680
0.22704443 -0.013193071 0.50662994 16711680
0.22400898 -0.011324763 0.50337148 16711680
0.18134236 -0.014637709 0.50286782 16711680
-0.094406873 -0.01059711 0.50524962 16711680
-0.14144853 -0.01232779 0.50616986 16711680
0.46555153 -0.015567541 0.50449491 16711680
0.46179968 -0.016185522 0.50640899 16711680
0.45741889 -0.016748965 0.50738811 16711680
0.45240271 -0.017364562 0.50658292 16711680
0.44798303 -0.016428828 0.50495285 16711680
0.41232723 -0.014776051 0.50520658 16711680
0.40766323 -0.0161075 0.50648075 16711680
0.40179858 -0.017834723 0.5073992 16711680
0.39757046 -0.016654372 0.50847036 16711680
0.39267021 -0.016654372 0.50847036 16711680
0.38777009 -0.016654372 0.50847036 16711680
0.38384992 -0.016654372 0.50847036 16711680
0.37110949 -0.016654372 0.50847036 16711680
0.36698961 -0.017047822 0.50811327 16711680
0.36202547 -0.017179012 0.50799423 16711680
0.35700122 -0.017441273 0.50775623 16711680
0.35194483 -0.016276896 0.50781661 16711680
0.34740126 -0.016182542 0.50765318 16711680
0.34317851 -0.016221702 0.50824028 16711680
0.33778828 -0.016654372 0.50847036 16711680
0.33288816 -0.016654372 0.50847036 16711680
0.32700792 -0.016654372 0.50847036 16711680
0.32210779 -0.016654372 0.50847036 16711680
0.3172076 -0.015789032 0.50801027 16711680
0.3132045 -0.016418457 0.50806171 16711680
0.30740726 -0.016654372 0.50847036 16711680
0.3025071 -0.016654372 0.50847036 16711680
0.23194461 -0.016654372 0.50847036 16711680
0.22770146 -0.016970575 0.50693971 16711680
0.22444744 -0.015567601 0.50449491 16711680
0.18191113 -0.015187562 0.50731295 16711680
-0.093984038 -0.016500652 0.50612354 16711680
-0.14131162 -0.016182542 0.50765318 16711680
0.46014529 -0.021523476 0.50652909 16711680
0.45724449 -0.02157414 0.50731117 16711680
0.45296377 -0.021757662 0.50693679 16711680
0.44844729 -0.019802034 0.5056138 16711680
0.4055545 -0.019802094 0.5056138 16711680
0.40360484 -0.019802094 0.5056138 16711680
0.39722335 -0.0207389 0.50724447 16711680
0.39234269 -0.02073884 0.50724447 16711680
0.38705575 -0.019692719 0.50819832 16711680
0.38252708 -0.021144986 0.50836641 16711680
0.37755466 -0.020032644 0.50913405 16711680
0.37245736 -0.020424426 0.50877607 16711680
0.36745122 -0.021169245 0.50747335 16711680
0.36208248 -0.0207389 0.50724447 16711680
0.35720181 -0.02073884 0.50724447 16711680
0.35232112 -0.021599591 0.50770217 16711680
0.34744045 -0.02159965 0.50770211 16711680
0.3422682 -0.020799756 0.50818288 16711680
0.33757809 -0.021145463 0.50836658 16711680
0.33263907 -0.020486832 0.50846946 16711680
0.32766679 -0.021458328 0.50808007 16711680
0.3227247 -0.020799756 0.50818294 16711680
0.31776541 -0.021771789 0.50779366 16711680
0.31235406 -0.021469235 0.50782156 16711680
0.30715424 -0.020643771 0.50832647 16711680
0.30265126 -0.020519078 0.50893974 16711680
0.29809695 -0.019683003 0.5100807 16711680
0.29270673 -0.020115614 0.51031077 16711680
0.28780657 -0.020115614 0.51031077 16711680
0.28290641 -0.020115614 0.51031077 16711680
0.27800623 -0.020115614 0.51031077 16711680
0.27212602 -0.019250274 0.50985062 16711680
0.26754487 -0.020205736 0.50922608 16711680
0.26250729 -0.01970309 0.50918537 16711680
0.25770575 -0.020362198 0.50908273 16711680
0.25281733 -0.01973635 0.50965607 16711680
0.24762516 -0.020115614 0.51031077 16711680
0.24272498 -0.020115614 0.51031077 16711680
0.23782481 -0.020115614 0.51031077 16711680
0.2327399 -0.019902647 0.50925374 16711680
0.22824322 -0.021991909 0.50734442 16711680
0.18125777 -0.020376444 0.51007193 16711680
0.17804271 -0.021846294 0.51123095 16711680
0.16726232 -0.021846294 0.51123095 16711680
0.16236216 -0.021269381 0.51092422 16711680
0.15746199 -0.020115614 0.51031077 16711680
0.15216979 -0.019423366 0.50994265 16711680
0.14766164 -0.019250274 0.50985062 16711680
0.14276147 -0.020115614 0.51031077 16711680
0.1378613 -0.020115614 0.51031077 16711680
0.13296112 -0.020115614 0.51031077 16711680
0.12708092 -0.020115614 0.51031077 16711680
0.12218075 -0.020980954 0.5107708 16711680
0.11924064 -0.021846294 0.51123095 16711680
0.10650019 -0.021846294 0.51123095 16711680
0.10258006 -0.021846294 0.51123095 16711680
0.097679883 -0.021846294 0.51123095 16711680
0.092779711 -0.021846294 0.51123095 16711680
0.087879539 -0.021846294 0.51123095 16711680
0.081999332 -0.021846294 0.51123095 16711680
0.077099159 -0.021846294 0.51123095 16711680
0.072198987 -0.021846294 0.51123095 16711680
0.067298815 -0.021846294 0.51123095 16711680
0.061418608 -0.020115614 0.51031077 16711680
0.057171792 -0.020692527 0.51061749 16711680
0.052990314 -0.020807922 0.51067883 16711680
0.047698125 -0.020115614 0.51031077 16711680
0.042797953 -0.021846294 0.51123095 16711680
0.038877815 -0.021846294 0.51123095 16711680
-0.093109712 -0.020425498 0.50877672 16711680
-0.14222321 -0.020703018 0.50977361 16711680
0.30197045 -0.024811745 0.50912696 16711680
0.29744157 -0.023940325 0.51030576 16711680
0.29274881 -0.024285555 0.51048928 16711680
0.28736332 -0.023879349 0.51061314 16711680
0.28240097 -0.024073839 0.51043338 16711680
0.27788818 -0.023939848 0.51030546 16711680
0.27280778 -0.025375247 0.5094831 16711680
0.26721859 -0.024706423 0.50859898 16711680
0.2622537 -0.024966419 0.50835973 16711680
0.25746417 -0.024706423 0.50859898 16711680
0.25275534 -0.024186373 0.50907755 16711680
0.24781381 -0.024811745 0.50912696 16711680
0.24207614 -0.024421751 0.50948584 16711680
0.23767625 -0.025375247 0.5094831 16711680
0.23255841 -0.025187016 0.50915653 16711680
0.18157503 -0.024658263 0.50989473 16711680
0.17779154 -0.025735378 0.51141119 16711680
0.17243978 -0.024889529 0.51194298 16711680
0.16763231 -0.025856495 0.51155108 16711680
0.16214651 -0.025160074 0.5111053 16711680
0.15724772 -0.02407378 0.51043344 16711680
0.15231062 -0.024398208 0.51013398 16711680
0.14738756 -0.024658263 0.50989473 16711680
0.14255434 -0.024268627 0.51025385 16711680
0.13766804 -0.02426827 0.51025355 16711680
0.13273665 -0.024657845 0.50989455 16711680
0.1273067 -0.024095833 0.51016194 16711680
0.12258469 -0.0254426 0.51042503 16711680
0.11718725 -0.025476575 0.51165116 16711680
0.11231756 -0.025217652 0.51189101 16711680
0.107871 -0.025368869 0.51112205 16711680
0.10248037 -0.025132418 0.5107131 16711680
0.097593203 -0.025132418 0.5107131 16711680
0.092706025 -0.025994301 0.51117134 16711680
0.087818854 -0.025994301 0.5111714 16711680
0.082926042 -0.026188672 0.51099163 16711680
0.078050286 -0.024873137 0.51095277 16711680
0.072179891 -0.025132418 0.5107131 16711680
0.06729272 -0.025132418 0.5107131 16711680
0.062405545 -0.02426821 0.51025361 16711680
0.057844181 -0.024556279 0.51040679 16711680
0.052243512 -0.025287032 0.5105688 16711680
0.047737956 -0.024073839 0.51043338 16711680
0.04286132 -0.026123881 0.51105154 16711680
0.037361383 -0.025701404 0.51169515 16711680
0.032640591 -0.024889529 0.51194298 16711680
0.027176451 -0.025346875 0.51177096 16711680
0.022316854 -0.02579987 0.51135105 16711680
0.017380293 -0.024354637 0.51143211 16711680
0.012207735 -0.025447726 0.51125824 16711680
0.0075798109 -0.025088429 0.51201105 16711680
0.0026579089 -0.024829924 0.51225114 16711680
-0.0013035908 -0.025307536 0.5130713 16711680
-0.022805445 -0.025695324 0.51271117 16711680
-0.027661577 -0.025088429 0.51201105 16711680
-0.032470398 -0.025606573 0.51153147 16711680
-0.037118964 -0.02492553 0.51241517 16711680
-0.042465046 -0.025307536 0.5130713 16711680
-0.045405142 -0.025307536 0.5130713 16711680
-0.087546632 -0.025307536 0.5130713 16711680
-0.091996744 -0.025243819 0.51061058 16711680
-0.14152785 -0.025176167 0.51130271 16711680
-0.16398929 -0.025307536 0.5130713 16711680
-0.16790944 -0.025307536 0.5130713 16711680
-0.17280963 -0.025307536 0.5130713 16711680
0.29734778 -0.028409362 0.51019037 16711680
0.29247361 -0.028409362 0.51019037 16711680
0.28759944 -0.028409362 0.51019037 16711680
0.28370011 -0.028409362 0.51019037 16711680
0.17646819 -0.030130804 0.51110566 16711680
0.17256884 -0.030130804 0.51110566 16711680
0.16964436 -0.030130804 0.51110566 16711680
0.15892115 -0.028409362 0.51019037 16711680
0.15404698 -0.028409362 0.51019037 16711680
0.12285224 -0.028409362 0.51019037 16711680
0.11602839 -0.030130804 0.51110566 16711680
0.10725487 -0.028409362 0.51019037 16711680
0.097506516 -0.028409362 0.51019037 16711680
0.078009814 -0.028409362 0.51019037 16711680
0.057538267 -0.028409362 0.51019037 16711680
0.05266409 -0.028409362 0.51019037 16711680
0.047789916 -0.028409362 0.51019037 16711680
0.03706672 -0.030130804 0.51110566 16711680
0.032192543 -0.030130804 0.51110566 16711680
0.029268041 -0.030130804 0.51110566 16711680
0.017570015 -0.028409362 0.51019037 16711680
0.013670675 -0.028409362 0.51019037 16711680
0.0068468228 -0.030130804 0.51110566 16711680
0.0019174889 -0.030189216 0.51189172 16711680
-0.0025690868 -0.02865684 0.51349318 16711680
-0.006857127 -0.028191924 0.51460499 16711680
-0.012032852 -0.030018449 0.51500988 16711680
-0.01839789 -0.028721571 0.51432037 16711680
-0.022572383 -0.029832423 0.51264584 16711680
-0.026845209 -0.030174613 0.51169527 16711680
-0.032212004 -0.029744208 0.51146638 16711680
-0.037134998 -0.030347645 0.51216471 16711680
-0.042287216 -0.028867126 0.51354831 16711680
-0.047265425 -0.028417468 0.51396978 16711680
-0.052665226 -0.029001594 0.51367646 16711680
-0.057459325 -0.028192997 0.51392597 16711680
-0.062484443 -0.028847456 0.51382095 16711680
-0.067287371 -0.0280388 0.51407057 16711680
-0.072754696 -0.02828896 0.51409024 16711680
-0.078009427 -0.028448939 0.51436406 16711680
-0.082482845 -0.028545916 0.51384944 16711680
-0.087605774 -0.029737473 0.51248205 16711680
-0.091611534 -0.030130804 0.51110566 16711680
-0.14220589 -0.029159844 0.51285452 16711680
-0.14718792 -0.029441953 0.51470333 16711680
-0.15264326 -0.030268312 0.51502949 16711680
-0.15707955 -0.028032005 0.51433116 16711680
-0.16265605 -0.028803229 0.51360869 16711680
-0.16744609 -0.02906096 0.51336819 16711680
-0.17244208 -0.028803229 0.51360869 16711680
-0.17762963 -0.028096259 0.5142709 16711680
-0.1828701 -0.029768527 0.51499027 16711680
-0.18751013 -0.030499458 0.51583195 16711680
-0.19241032 -0.030499458 0.51583195 16711680
-0.19731051 -0.030499458 0.51583195 16711680
-0.20221066 -0.030499458 0.51583195 16711680
-0.2061308 -0.030499458 0.51583195 16711680
-0.24337211 -0.030499458 0.51583195 16711680
-0.24751809 -0.030114651 0.51517427 16711680
-0.25252724 -0.030268371 0.51502949 16711680
-0.2570926 -0.029922605 0.51552516 16711680
-0.0029474497 -0.033189416 0.51329827 16711680
-0.00746236 -0.033991754 0.51406455 16711680
-0.012700997 -0.03491199 0.51421416 16711680
-0.017632358 -0.032805085 0.51366025 16711680
-0.042918585 -0.033317506 0.51317757 16711680
-0.047894284 -0.032805145 0.51366025 16711680
-0.052723542 -0.033061326 0.51341897 16711680
-0.057655625 -0.032805145 0.51366025 16711680
-0.062422216 -0.033317506 0.51317757 16711680
-0.067329466 -0.033189416 0.51329827 16711680
-0.072739378 -0.033427656 0.51370811 16711680
-0.076790273 -0.033635139 0.51372409 16711680
-0.081927598 -0.033317506 0.51317757 16711680
-0.14378875 -0.033635139 0.51372397 16711680
-0.1476907 -0.035358191 0.51464009 16711680
-0.15189241 -0.035370767 0.51479781 16711680
-0.15774713 -0.033647418 0.5138815 16711680
-0.16277452 -0.033573687 0.51293629 16711680
-0.16764872 -0.033573687 0.51293629 16711680
-0.17252287 -0.033573687 0.51293629 16711680
-0.17820832 -0.03323549 0.51388907 16711680
-0.18243672 -0.03491199 0.51421416 16711680
-0.18742603 -0.035517335 0.51491362 16711680
-0.19253364 -0.035007656 0.51539755 16711680
-0.19735935 -0.035134614 0.51527637 16711680
-0.20247933 -0.034624517 0.51576018 16711680
-0.20726424 -0.03418529 0.51643264 16711680
-0.21225554 -0.03322798 0.51682967 16711680
-0.217767 -0.03421545 0.51743019 16711680
-0.22299039 -0.033638537 0.51712352 16711680
-0.22736764 -0.033732057 0.51660705 16711680
-0.23270458 -0.03418529 0.51643264 16711680
-0.23764271 -0.033380747 0.51668435 16711680
-0.24262103 -0.034496784 0.515881 16711680
-0.24751392 -0.034959257 0.51480561 16711680
-0.25288266 -0.034528852 0.51457679 16711680
-0.25754151 -0.034337223 0.51560742 16711680
-0.26232085 -0.033726931 0.51686841 16711680
-0.26787299 -0.03396076 0.5176723 16711680
-0.27865335 -0.033960819 0.5176723 16711680
-0.29237387 -0.033960819 0.5176723 16711680
-0.29727399 -0.033960819 0.5176723 16711680
-0.30217421 -0.033960819 0.5176723 16711680
-0.20469245 -0.038738072 0.51568222 16711680
-0.20779938 -0.038357258 0.51604605 16711680
-0.21273866 -0.03823024 0.51616734 16711680
-0.21774179 -0.037976384 0.51640987 16711680
-0.2223663 -0.038484216 0.51592475 16711680
-0.22711366 -0.038738072 0.51568222 16711680
-0.23198786 -0.038738072 0.51568222 16711680
-0.23797059 -0.038484216 0.51592475 16711680
-0.25928324 -0.038738072 0.51568222 16711680
-0.2628628 -0.038456857 0.51723158 16711680
-0.26792967 -0.037641048 0.51827013 16711680
-0.27289584 -0.036839306 0.51852334 16711680
-0.27744609 -0.036936462 0.5186882 16711680
-0.282343 -0.036936462 0.51868826 16711680
-0.28749916 -0.037641108 0.51827008 16711680
-0.2921955 -0.037295878 0.51808655 16711680
-0.29738081 -0.037489235 0.51841587 16711680
-0.30217558 -0.036991179 0.5183776 16711680
-0.26723036 -0.041928649 0.51775622 16711680
-0.27240539 -0.041423917 0.5182429 16711680
-0.27728605 -0.041423917 0.5182429 16711680
-0.28298748 -0.041676283 0.51799959 16711680
-0.28755349 -0.042181075 0.51751286 16711680
-0.29242766 -0.042181075 0.51751286 16711680
-0.29730183 -0.042181075 0.51751286 16711680
-0.30144596 -0.041802466 0.51787788 16711680
0.17034197 0.0049277544 0.49812749 16711680
0.16716126 0.0060484409 0.49828669 16711680
0.16389555 0.0084447265 0.4999384 16711680
-0.14185925 0.0062026381 0.49801597 16711680
0.47475237 0.0029594302 0.50370449 16711680
0.17652462 0.0022106171 0.50183749 16711680
0.17253891 0.00454849 0.50021672 16711680
0.16780484 0.0056313872 0.50115108 16711680
0.16399434 0.0064436197 0.50185186 16711680
-0.14199615 0.0031394362 0.500211 16711680
0.47224069 -0.00045722723 0.50438845 16711680
0.46758124 -5.5253506e-05 0.50474107 16711680
0.46390051 0.0012173057 0.50463074 16711680
0.44318327 -0.0005248189 0.50555706 16711680
0.43331796 -0.0005248189 0.50555706 16711680
0.22593361 -0.0013279319 0.50485146 16711680
0.17849249 -0.00039339066 0.50322199 16711680
-0.091105402 -0.0012644529 0.50368518 16711680
-0.14190488 -0.001467824 0.50228322 16711680
0.47063023 -0.0054697394 0.50365603 16711680
0.46732473 -0.005402863 0.50494176 16711680
0.46261951 -0.0043367743 0.50588506 16711680
0.4575845 -0.0061381459 0.50552148 16711680
0.42718643 -0.0042687058 0.50471628 16711680
0.42282033 -0.005073607 0.50646561 16711680
0.41805288 -0.0065472722 0.50762665 16711680
0.41358727 -0.005751133 0.50833595 16711680
0.38004515 -0.0057511926 0.50833595 16711680
0.37708557 -0.0057511926 0.50833595 16711680
0.35044914 -0.0057511926 0.50833595 16711680
0.34847608 -0.0057511926 0.50833595 16711680
0.31690702 -0.0057511926 0.50833595 16711680
0.31296086 -0.0057511926 0.50833595 16711680
0.3070417 -0.0057511926 0.50833595 16711680
0.22719915 -0.0056065321 0.50599396 16711680
0.18030784 -0.00640589 0.50528634 16711680
-0.093073264 -0.0056082606 0.50599468 16711680
-0.14199615 -0.0055367351 0.50482422 16711680
0.46670493 -0.0089356303 0.50549889 16711680
0.46238792 -0.0096932054 0.506468 16711680
0.45813307 -0.0094040036 0.50631422 16711680
0.45492887 -0.0089356303 0.50549889 16711680
0.41960084 -0.0089356303 0.50549889 16711680
0.41297233 -0.0085516572 0.50831497 16711680
0.40782216 -0.0098158717 0.50842077 16711680
0.40288055 -0.0093301535 0.50910628 16711680
0.39736339 -0.0094462633 0.50916815 16711680
0.39294207 -0.0094884634 0.50896394 16711680
0.38729915 -0.0095528364 0.50865841 16711680
0.38248134 -0.0093544126 0.50883603 16711680
0.37745336 -0.0095528364 0.50865841 16711680
0.3720603 -0.0091409683 0.50877917 16711680
0.36733276 -0.0094884634 0.50896394 16711680
0.36236781 -0.0088233948 0.50906336 16711680
0.357483 -0.0094884634 0.508964 16711680
0.35213363 -0.0096163154 0.50835228 16711680
0.3472603 -0.010280907 0.50825274 16711680
0.34236434 -0.0094575882 0.5084945 16711680
0.3378551 -0.0093301535 0.50910628 16711680
0.33245683 -0.0088920593 0.50925094 16711680
0.32723957 -0.009552896 0.50865841 16711680
0.32281214 -0.0091409683 0.50877917 16711680
0.3177501 -0.010280907 0.50825274 16711680
0.31236148 -0.0098167062 0.50842118 16711680
0.30754793 -0.009552896 0.50865841 16711680
0.302625 -0.009552896 0.50865841 16711680
0.2974481 -0.0088552237 0.50953341 16711680
0.29224366 -0.0092354417 0.51018858 16711680
0.27152649 -0.0092354417 0.51018858 16711680
0.26856688 -0.0092354417 0.51018858 16711680
0.26264766 -0.0092354417 0.51018858 16711680
0.25870153 -0.0092354417 0.51018858 16711680
0.23659384 -0.008918643 0.50964254 16711680
0.23266451 -0.0097507834 0.50848043 16711680
0.22840317 -0.010072708 0.50695282 16711680
0.18061288 -0.0091571212 0.50901425 16711680
0.15610206 -0.0092354417 0.51018858 16711680
0.15215594 -0.0092354417 0.51018858 16711680
0.14715017 -0.0097631216 0.50971407 16711680
0.14327714 -0.0092354417 0.51018858 16711680
-0.093177661 -0.0095528364 0.50865847 16711680
-0.143767 -0.0085532665 0.5083158 16711680
0.40208471 -0.013871372 0.50850081 16711680
0.39725071 -0.013739824 0.50861961 16711680
0.39212349 -0.014134467 0.50826311 16711680
0.38721684 -0.014134467 0.50826311 16711680
0.38208523 -0.014511943 0.50891685 16711680
0.37761039 -0.014606297 0.50908029 16711680
0.37319177 -0.01417309 0.50884998 16711680
0.36759013 -0.014134467 0.50826311 16711680
0.36268348 -0.014134467 0.50826311 16711680
0.35777682 -0.014134467 0.50826311 16711680
0.3548328 -0.014134467 0.50826311 16711680
0.34207547 -0.014134467 0.50826311 16711680
0.33740824 -0.013608277 0.5087384 16711680
0.33261609 -0.013345242 0.5089761 16711680
0.32758796 -0.013608277 0.5087384 16711680
0.32244879 -0.014134467 0.50826311 16711680
0.31950477 -0.014134467 0.50826311 16711680
0.31165409 -0.014134467 0.50826311 16711680
0.30772877 -0.014134467 0.50826311 16711680
0.30204901 -0.013608277 0.5087384 16711680
0.2980139 -0.013912916 0.50995737 16711680
0.29277915 -0.013030231 0.51050735 16711680
0.28711528 -0.012373269 0.5111019 16711680
0.28223512 -0.012242079 0.51122093 16711680
0.27761635 -0.012304425 0.51091427 16711680
0.27250215 -0.0137555 0.51010019 16711680
0.26722556 -0.01388061 0.50948721 16711680
0.26240319 -0.014542818 0.5093863 16711680
0.25739661 -0.01388061 0.50948721 16711680
0.25292605 -0.013439775 0.51038539 16711680
0.24764933 -0.012504399 0.51098293 16711680
0.24268259 -0.012635589 0.5108639 16711680
0.23749185 -0.013555229 0.5100314 16711680
0.23227738 -0.013739824 0.50861961 16711680
0.18066372 -0.013242781 0.51156425 16711680
0.17769399 -0.01417923 0.51196772 16711680
0.17277837 -0.014984906 0.51249051 16711680
0.16763517 -0.013696313 0.51165438 16711680
0.16292214 -0.012373269 0.5111019 16711680
0.15786085 -0.013226926 0.51032889 16711680
0.15289128 -0.013555169 0.51003146 16711680
0.14737746 -0.013407946 0.50991547 16711680
0.14267626 -0.013597667 0.51024282 16711680
0.13724628 -0.012767136 0.51074493 16711680
0.13233644 -0.012635589 0.51086384 16711680
0.12742355 -0.012504399 0.51098293 16711680
0.12213083 -0.014348149 0.51139694 16711680
0.11808521 -0.014418602 0.51237816 16711680
0.11266252 -0.014854133 0.51260972 16711680
0.10770559 -0.015246451 0.51225209 16711680
0.10277942 -0.015246511 0.51225209 16711680
0.097370818 -0.01461482 0.51219928 16711680
0.093268208 -0.014404178 0.51218176 16711680
0.088000916 -0.01481092 0.51202053 16711680
0.082103677 -0.014723361 0.51272899 16711680
0.077163346 -0.015246511 0.51225209 16711680
0.072237179 -0.015246451 0.51225209 16711680
0.067311011 -0.015246511 0.51225209 16711680
0.062383693 -0.013824224 0.51187336 16711680
0.057458676 -0.013506651 0.51132697 16711680
0.052135125 -0.012652457 0.51109922 16711680
0.047934748 -0.012925923 0.51101828 16711680
0.043180153 -0.015007138 0.51184165 16711680
0.037718058 -0.014461756 0.51296747 16711680
0.034758456 -0.014461756 0.51296747 16711680
0.015027791 -0.014461756 0.51296747 16711680
0.01206819 -0.014461756 0.51296747 16711680
0.0061489865 -0.014461756 0.51296747 16711680
0.0022028536 -0.014461756 0.51296747 16711680
-0.0017432794 -0.014461756 0.51296747 16711680
-0.033312343 -0.014461756 0.51296747 16711680
-0.089544743 -0.014461756 0.51296747 16711680
-0.092035815 -0.014490843 0.51043463 16711680
-0.14409961 -0.013818264 0.50979382 16711680
-0.14714235 -0.014666498 0.51194376 16711680
-0.15070982 -0.014461756 0.51296747 16711680
-0.15662901 -0.014461756 0.51296747 16711680
0.29693413 -0.017600298 0.51010597 16711680
0.292227 -0.017077267 0.51058286 16711680
0.28741497 -0.016815662 0.51082134 16711680
0.28250176 -0.016815662 0.51082134 16711680
0.27758861 -0.016815662 0.51082134 16711680
0.2743634 -0.017600298 0.51010597 16711680
0.2508114 -0.017600298 0.51010597 16711680
0.24786739 -0.017600298 0.51010597 16711680
0.24296071 -0.017600298 0.51010597 16711680
0.23805404 -0.017600298 0.51010597 16711680
0.18030784 -0.018550932 0.51174402 16711680
0.17703238 -0.019128561 0.51205111 16711680
0.17244676 -0.019417405 0.51220471 16711680
0.16746643 -0.018942118 0.51138568 16711680
0.1629613 -0.017822742 0.51090378 16711680
0.15758461 -0.017600298 0.51010597 16711680
0.15464061 -0.017600298 0.51010597 16711680
0.14289811 -0.017338753 0.51034451 16711680
0.13700923 -0.017338753 0.51034451 16711680
0.13206992 -0.017600298 0.51010597 16711680
0.12718983 -0.017338753 0.51034451 16711680
0.12229516 -0.018074512 0.51092434 16711680
0.11703955 -0.019088149 0.51225609 16711680
0.11252211 -0.019222379 0.51238412 16711680
0.10808423 -0.018984199 0.51197433 16711680
0.10267974 -0.018550932 0.51174402 16711680
0.097766571 -0.018550932 0.51174402 16711680
0.092853397 -0.018550932 0.51174402 16711680
0.087940231 -0.018550932 0.51174402 16711680
0.082044423 -0.018550932 0.51174402 16711680
0.077131256 -0.018550932 0.51174402 16711680
0.072210856 -0.019072473 0.51126629 16711680
0.067304917 -0.018550932 0.51174402 16711680
0.062392026 -0.017654896 0.51089001 16711680
0.057478573 -0.016815662 0.51082134 16711680
0.052571751 -0.017077267 0.51058286 16711680
0.048656512 -0.017600298 0.51010597 16711680
0.042757824 -0.019072473 0.51126629 16711680
0.037486799 -0.01886785 0.51228994 16711680
0.032876056 -0.018766224 0.51280224 16711680
0.027361289 -0.018809736 0.5130142 16711680
0.022649497 -0.018618345 0.51268578 16711680
0.017190579 -0.019417405 0.51220471 16711680
0.012277406 -0.019417405 0.51220471 16711680
0.0073510967 -0.019287407 0.51232427 16711680
0.0024096966 -0.019027412 0.51256359 16711680
-0.002641879 -0.017855406 0.51363933 16711680
-0.0066759512 -0.017946005 0.51482004 16711680
-0.011608608 -0.019688129 0.51574636 16711680
-0.01851435 -0.019688129 0.51574636 16711680
-0.022866018 -0.018095613 0.51405007 16711680
-0.027689278 -0.019121766 0.51272702 16711680
-0.032359309 -0.019087613 0.51225591 16711680
-0.037526019 -0.01912272 0.5127275 16711680
-0.042471737 -0.017524838 0.51368999 16711680
-0.047505312 -0.018095553 0.51405007 16711680
-0.052887477 -0.01872611 0.51410222 16711680
-0.057894662 -0.017464995 0.51399803 16711680
-0.06282407 -0.017464995 0.51399791 16711680
-0.067216471 -0.018095613 0.51405007 16711680
-0.07277368 -0.017946005 0.51482004 16711680
-0.077706337 -0.017946005 0.51482004 16711680
-0.082639009 -0.017946005 0.51482004 16711680
-0.087803915 -0.017873704 0.51387548 16711680
-0.090796068 -0.019808531 0.51184636 16711680
-0.14368501 -0.017600298 0.51010597 16711680
-0.14712049 -0.018832386 0.512743 16711680
-0.15244389 -0.017725825 0.51375902 16711680
-0.15746889 -0.017464995 0.51399797 16711680
-0.16239832 -0.017464995 0.51399797 16711680
-0.16725083 -0.017660022 0.51381856 16711680
-0.17183127 -0.017717242 0.51401877 16711680
-0.17702691 -0.01872611 0.51410222 16711680
-0.1822789 -0.018526733 0.51512885 16711680
-0.18622503 -0.019688129 0.51574636 16711680
-0.24837664 -0.019688129 0.51574636 16711680
-0.25232279 -0.019688129 0.51574636 16711680
-0.0029317662 -0.02264905 0.51363981 16711680
-0.0074710101 -0.022111297 0.51476961 16711680
-0.012425184 -0.023590744 0.51593369 16711680
-0.016982369 -0.02355957 0.51553965 16711680
-0.021650322 -0.022260785 0.51399964 16711680
-0.039663576 -0.022799134 0.51287019 16711680
-0.042679496 -0.022410274 0.51322973 16711680
-0.048026517 -0.022870064 0.51381397 16711680
-0.052576445 -0.022887826 0.51404995 16711680
-0.05743517 -0.023147106 0.51381028 16711680
-0.062318519 -0.023276687 0.51369041 16711680
-0.067287207 -0.023017466 0.51393014 16711680
-0.072274819 -0.022693992 0.51423001 16711680
-0.077330306 -0.022111297 0.51476961 16711680
-0.082682639 -0.022906065 0.5142861 16711680
-0.086966902 -0.022021353 0.51358926 16711680
-0.14368501 -0.022799134 0.51287019 16711680
-0.1474994 -0.02306205 0.51414257 16711680
-0.15256073 -0.021783113 0.51482159 16711680
-0.15781605 -0.02262938 0.51429003 16711680
-0.16230391 -0.022599041 0.51389641 16711680
-0.16754463 -0.022021413 0.51358926 16711680
-0.17245778 -0.022021413 0.51358926 16711680
-0.17776452 -0.022714972 0.5139581 16711680
-0.18261057 -0.022980034 0.51523149 16711680
-0.18720406 -0.023868203 0.51593018 16711680
-0.1919947 -0.02336508 0.51588923 16711680
-0.19725293 -0.023403347 0.51636267 16711680
-0.20212168 -0.022745609 0.51646596 16711680
-0.20716712 -0.023316741 0.51682627 16711680
-0.2118749 -0.023172379 0.51759893 16711680
-0.23949784 -0.023172379 0.51759893 16711680
-0.24303588 -0.02394551 0.51687747 16711680
-0.24720642 -0.023210466 0.51603353 16711680
-0.25247052 -0.023848832 0.51569337 16711680
-0.25749701 -0.023654938 0.51587355 16711680
-0.26154214 -0.024332106 0.51651675 16711680
-0.26613426 -0.023172379 0.51759893 16711680
-0.30460903 -0.023172438 0.51759893 16711680
-0.30658212 -0.023172438 0.51759893 16711680
-0.0082608759 -0.026265025 0.51471305 16711680
-0.018074222 -0.026265025 0.51471305 16711680
-0.076954275 -0.026265025 0.51471305 16711680
-0.14859168 -0.026265025 0.51471305 16711680
-0.15251701 -0.026265025 0.51471305 16711680
-0.18097572 -0.026265025 0.51471305 16711680
-0.18784505 -0.027997971 0.51563442 16711680
-0.19275174 -0.027997971 0.51563442 16711680
-0.19765842 -0.027997971 0.51563442 16711680
-0.20256507 -0.027997971 0.51563442 16711680
-0.20816019 -0.027804732 0.51666433 16711680
-0.21264559 -0.027651548 0.51748884 16711680
-0.21781561 -0.02638042 0.51817209 16711680
-0.22286221 -0.026882052 0.51821226 16711680
-0.22758979 -0.026533604 0.51802707 16711680
-0.23247594 -0.027343154 0.51777798 16711680
-0.23703986 -0.027304053 0.51730412 16711680
-0.24191147 -0.027766526 0.5168705 16711680
-0.24574378 -0.027997971 0.51563442 16711680
-0.25871599 -0.027612507 0.5159958 16711680
-0.26286077 -0.028094113 0.51681817 16711680
-0.26755905 -0.026746809 0.51808381 16711680
-0.27237815 -0.026420891 0.51864666 16711680
-0.27719998 -0.025918901 0.51860619 16711680
-0.2825233 -0.026426494 0.51838523 16711680
-0.28760618 -0.027040958 0.51908958 16711680
-0.2927919 -0.026989698 0.51849604 16711680
-0.29791135 -0.026574671 0.51850182 16711680
-0.30244726 -0.02653414 0.51802725 16711680
-0.30560297 -0.027323902 0.51754117 16711680
-0.2172851 -0.031463802 0.51747727 16711680
-0.22121042 -0.031463802 0.51747727 16711680
-0.26762745 -0.03095293 0.51796073 16711680
-0.27246314 -0.031947136 0.51830059 16711680
-0.27693468 -0.031850517 0.51813591 16711680
-0.28273413 -0.032350361 0.51817518 16711680
-0.2877253 -0.03154403 0.518426 16711680
-0.29316294 -0.03095299 0.51796073 16711680
-0.29823497 -0.030697584 0.51820242 16711680
-0.30216551 -0.030697584 0.51820242 16711680
-0.3051134 -0.030697584 0.51820242 16711680
0.15769525 0.014011621 0.50349069 16711680
0.16116126 0.0098723173 0.50116134 16711680
0.15773445 0.01012969 0.50328958 16711680
0.15302238 0.010818243 0.50481111 16711680
0.14776492 0.010504484 0.50535554 16711680
-0.088576779 0.011381269 0.50488931 16711680
0.47232869 0.0037669539 0.50440758 16711680
0.4686434 0.0041707754 0.50475919 16711680
0.46177495 0.0075361133 0.50523502 16711680
0.45906055 0.0061897039 0.50651711 16711680
0.43276519 0.0052437782 0.50815272 16711680
0.42879307 0.0052437782 0.50815272 16711680
0.29274762 0.0052437186 0.50815272 16711680
0.22758643 0.0059196949 0.5062831 16711680
0.17528036 0.0045064688 0.50627959 16711680
0.17267188 0.0052835941 0.50538099 16711680
0.16732678 0.0052006245 0.50565875 16711680
0.16220903 0.0055328012 0.50524843 16711680
0.1575326 0.0059189796 0.50628352 16711680
0.15269136 0.0067276955 0.50698614 16711680
0.14801317 0.0072164536 0.50710368 16711680
0.14379279 0.0087509155 0.50628787 16711680
-0.089748368 0.0037668943 0.50440758 16711680
0.44565722 0.00027817488 0.50626266 16711680
0.44170588 0.00027817488 0.50626266 16711680
0.43791807 0.00054579973 0.50649786 16711680
0.43107975 0.00067967176 0.50661546 16711680
0.42696831 0.0016482472 0.50808251 16711680
0.42277366 0.0013165474 0.50865519 16711680
0.41748437 0.0019460917 0.50896227 16711680
0.41267687 0.0022129416 0.50919783 16711680
0.40749049 0.00093585253 0.50931066 16711680
0.40297425 0.0017365217 0.51001751 16711680
0.39800906 0.0017365813 0.51001757 16711680
0.3919082 0.0020540953 0.50947106 16711680
0.38734373 0.0017973781 0.50907904 16711680
0.38248962 0.0014116764 0.5084914 16711680
0.37766978 0.0016787052 0.50872684 16711680
0.37248504 0.0017745495 0.50943089 16711680
0.36821809 0.0017365217 0.51001751 16711680
0.36126685 0.0017365217 0.51001751 16711680
0.35710278 0.0013361573 0.50966406 16711680
0.35294521 0.00093579292 0.50931066 16711680
0.3477377 0.0019575357 0.50922036 16711680
0.34221771 0.002212882 0.50919783 16711680
0.33743411 0.0017365217 0.51001751 16711680
0.3324689 0.0017365813 0.51001757 16711680
0.32750377 0.0017365217 0.51001751 16711680
0.32242709 0.0014696121 0.5097819 16711680
0.31724283 0.00093579292 0.50931066 16711680
0.31228244 0.0015202761 0.50899982 16711680
0.30779302 0.0013164878 0.50865519 16711680
0.30231458 0.0016787052 0.50872684 16711680
0.29748401 0.0020127296 0.50902116 16711680
0.29308522 0.0022777915 0.50950319 16711680
0.26792184 0.0017365217 0.51001751 16711680
0.26295668 0.0017365813 0.51001757 16711680
0.25799149 0.0017365217 0.51001751 16711680
0.23515175 0.0017365217 0.51001751 16711680
0.23162328 0.0015202761 0.50899982 16711680
0.22774701 0.00054574013 0.50649786 16711680
0.17730147 0.0016127825 0.50814176 16711680
0.17259073 0.002613306 0.50955129 16711680
0.16762558 0.002613306 0.50955123 16711680
0.16262877 0.0024131536 0.50937462 16711680
0.15757391 0.0018113852 0.50884509 16711680
0.15267268 0.0022129416 0.50919789 16711680
0.14769271 0.0020790696 0.50908023 16711680
0.14313078 0.0023211241 0.50970674 16711680
-0.090951636 0.0024194121 0.50814426 16711680
-0.14617266 0.0017365217 0.51001751 16711680
0.41762006 -0.003447175 0.50852656 16711680
0.41194975 -0.0034293532 0.50891358 16711680
0.4073568 -0.0036836863 0.50893545 16711680
0.40278283 -0.0030191541 0.50952595 16711680
0.39744627 -0.0024722815 0.50976372 16711680
0.39226362 -0.0036190748 0.50924093 16711680
0.38758713 -0.0036837459 0.50893545 16711680
0.38299865 -0.0035891533 0.5087719 16711680
0.37749672 -0.0032107234 0.50811768 16711680
0.3728269 -0.0035506487 0.50905359 16711680
0.36722502 -0.0028860569 0.50964397 16711680
0.36247215 -0.0024872422 0.5099982 16711680
0.3576853 -0.0027911663 0.50948024 16711680
0.35298958 -0.0036837459 0.50893545 16711680
0.34715208 -0.0030480027 0.50888062 16711680
0.34274581 -0.0037783384 0.50909895 16711680
0.33735344 -0.003284514 0.5092895 16711680
0.33209383 -0.0024713874 0.50976318 16711680
0.32713443 -0.0032992363 0.50952393 16711680
0.32260138 -0.003084898 0.50946653 16711680
0.31798175 -0.0030480027 0.50888062 16711680
0.31246176 -0.0028115511 0.50847173 16711680
0.30736059 -0.0032107234 0.50811768 16711680
0.30257758 -0.0036836863 0.50893551 16711680
0.29773629 -0.0034179688 0.50917166 16711680
0.2922011 -0.0023549795 0.51011658 16711680
0.28756344 -0.0014910102 0.51088411 16711680
0.28267473 -0.0012919307 0.51106143 16711680
0.27771282 -0.0012919903 0.51106143 16711680
0.27266109 -0.0015577078 0.51082522 16711680
0.26752341 -0.0020892024 0.51035285 16711680
0.262568 -0.002089262 0.51035285 16711680
0.25709254 -0.0016747713 0.51047224 16711680
0.25243172 -0.0017061234 0.51094186 16711680
0.24732134 -0.0011962652 0.51089716 16711680
0.24251282 -0.0017061234 0.51094186 16711680
0.23779158 -0.0020886064 0.51035249 16711680
0.23281349 -0.0034294128 0.50891352 16711680
0.17730948 -0.0022226572 0.51023501 16711680
0.17252031 -0.0012919307 0.51106143 16711680
0.16751406 -0.0015580654 0.5108254 16711680
0.16246867 -0.002089262 0.51035285 16711680
0.15749346 -0.0022218823 0.51023459 16711680
0.15244299 -0.0028864741 0.50964415 16711680
0.14749409 -0.0028864145 0.50964415 16711680
0.14262122 -0.0022882223 0.51017553 16711680
0.13778692 -0.0012919903 0.51106137 16711680
0.13250925 -0.002619803 0.51195627 16711680
0.12782194 -0.0043181181 0.51210415 16711680
0.12255754 -0.0034689903 0.51203018 16711680
0.11797395 -0.0035242438 0.51281476 16711680
0.11300879 -0.0035242438 0.5128147 16711680
0.091162078 -0.0035242438 0.5128147 16711680
0.052439302 -0.0032043457 0.51226705 16711680
0.047479481 -0.0039212108 0.51245946 16711680
0.020656787 -0.0035242438 0.5128147 16711680
0.010726459 -0.0035242438 0.5128147 16711680
0.0077473633 -0.0035242438 0.5128147 16711680
0.0027822033 -0.0035242438 0.51281476 16711680
-0.002160646 -0.0028458834 0.51217091 16711680
-0.0051620528 -0.0026474595 0.51234853 16711680
-0.088576779 -0.0035242438 0.5128147 16711680
-0.091234043 -0.0018976331 0.51127017 16711680
-0.14655739 -0.0025660396 0.51117259 16711680
0.40021688 -0.0066995621 0.50997275 16711680
0.39824122 -0.0066995621 0.50997275 16711680
0.29550657 -0.0066995621 0.50997275 16711680
0.29269341 -0.0063025951 0.51032799 16711680
0.2877987 -0.0070425272 0.51091009 16711680
0.2825287 -0.0061281919 0.51148099 16711680
0.27760983 -0.0069528222 0.51123995 16711680
0.27249658 -0.0065402985 0.51073748 16711680
0.26670718 -0.0067518353 0.51075554 16711680
0.26217932 -0.0059057474 0.51068318 16711680
0.25673556 -0.0070164204 0.51051873 16711680
