# .PCD v0.7 - Point Cloud Data file format
VERSION 0.7
FIELDS x y z rgba
SIZE 4 4 4 4
TYPE F F F U
COUNT 1 1 1 1
WIDTH 1180
HEIGHT 1
VIEWPOINT 0 0 0 1 0 0 0
POINTS 1180
DATA ascii
0.13712771 -0.49880841 0.49624354 65280
0.14242221 -0.49893224 0.49636644 65280
0.14768319 -0.49893218 0.49636632 65280
0.15275419 -0.49831378 0.49575144 65280
0.15796985 -0.49819034 0.49562833 65280
0.16289 -0.49832472 0.495368 65280
0.16744915 -0.49851829 0.49477431 65280
0.17225082 -0.49966824 0.49450278 65280
0.17696743 -0.4989922 0.4940694 65280
0.18219784 -0.49858508 0.49513531 65280
0.1878317 -0.49843758 0.49587432 65280
0.19289844 -0.49870324 0.49637493 65280
0.1975136 -0.49856144 0.49599722 65280
0.20222868 -0.49845877 0.49510804 65280
0.20694733 -0.49961251 0.49468327 65280
0.21188264 -0.49963933 0.49353656 65280
0.2171284 -0.49963933 0.49353656 65280
0.22237067 -0.49963933 0.49353656 65280
0.22750235 -0.49939084 0.49329114 65280
0.2329762 -0.49988776 0.49378192 65280
0.23787467 -0.49987042 0.49454615 65280
0.24254006 -0.49887872 0.49483752 65280
0.24765995 -0.49841911 0.49561989 65280
0.25219542 -0.4992463 0.49482411 65280
0.25715008 -0.49975055 0.49423242 65280
0.2627053 -0.49988776 0.49378192 65280
0.26898524 -0.49912512 0.49381 65280
0.27274084 -0.49845487 0.4942418 65280
0.27720845 -0.49906415 0.49502203 65280
0.28213423 -0.49868059 0.4956103 65280
0.2876904 -0.498438 0.49587411 65280
0.2929453 -0.498438 0.49587411 65280
0.29739234 -0.49751708 0.49519351 65280
0.30220464 -0.49781996 0.49525893 65280
0.30711299 -0.49827093 0.49547207 65280
0.31237257 -0.49868494 0.49612033 65280
0.31603393 -0.49893221 0.49636638 65280
-0.22195485 -0.49306124 0.50118691 65280
-0.21756095 -0.49383718 0.50077432 65280
-0.21228826 -0.49461308 0.5003618 65280
-0.19822772 -0.49306124 0.50118691 65280
-0.19119747 -0.49461308 0.5003618 65280
-0.18699771 -0.49435276 0.49914119 65280
-0.18221886 -0.49407372 0.49838346 65280
-0.17739816 -0.49367476 0.49821806 65280
-0.17248499 -0.49439612 0.49934459 65280
-0.16834912 -0.49306124 0.50118691 65280
-0.12792513 -0.49306124 0.50118691 65280
-0.12265243 -0.49306124 0.50118691 65280
-0.11825852 -0.49461308 0.5003618 65280
-0.11210705 -0.49306124 0.50118691 65280
-0.10771312 -0.49306124 0.50118691 65280
-0.10156165 -0.49306124 0.50118691 65280
-0.098925307 -0.49306124 0.50118691 65280
-0.091895044 -0.49461308 0.5003618 65280
-0.087501131 -0.4940958 0.50063682 65280
-0.082228437 -0.49306124 0.50118691 65280
-0.076955743 -0.49306124 0.50118691 65280
-0.069046699 -0.49306124 0.50118691 65280
-0.056743748 -0.49306124 0.50118691 65280
-0.052349832 -0.49306124 0.50118691 65280
-0.047077138 -0.49306124 0.50118691 65280
-0.041804444 -0.49306124 0.50118691 65280
-0.036531746 -0.49461308 0.5003618 65280
-0.032530196 -0.49426663 0.49941349 65280
-0.027655169 -0.49379665 0.49834192 65280
-0.022387877 -0.49355203 0.49809447 65280
-0.017130487 -0.49420339 0.49755943 65280
-0.012098107 -0.49404055 0.49769312 65280
-0.0075039864 -0.49355206 0.49809444 65280
-0.0031270543 -0.49379706 0.49834171 65280
0.0021315173 -0.49465516 0.49920684 65280
0.0073845298 -0.49391937 0.49846545 65280
0.012627204 -0.49330747 0.49784702 65280
0.018097913 -0.49394852 0.49760053 65280
0.023349419 -0.49433506 0.49739501 65280
0.027496442 -0.49318516 0.49772337 65280
0.032240264 -0.49486983 0.49728057 65280
0.037141629 -0.49425179 0.49760908 65280
0.042400822 -0.49355203 0.49809447 65280
0.047749016 -0.49453247 0.49908334 65280
0.053025279 -0.49465516 0.49920684 65280
0.05792132 -0.49435323 0.49914092 65280
0.062094927 -0.4943682 0.49867988 65280
0.067201018 -0.49414575 0.49818331 65280
0.072186507 -0.49444801 0.49780691 65280
0.077364102 -0.493958 0.49731237 65280
0.082425058 -0.49394882 0.49760038 65280
0.087344766 -0.49458319 0.49754626 65280
0.091991536 -0.49368757 0.49783361 65280
0.097484827 -0.49318513 0.49772331 65280
0.10224028 -0.4934867 0.49778959 65280
0.10713675 -0.49330786 0.49784684 65280
0.11238641 -0.49330786 0.49784684 65280
0.11760816 -0.49318516 0.49772337 65280
0.12291007 -0.49416807 0.49752423 65280
0.12804253 -0.49448392 0.4966552 65280
0.13288663 -0.49413276 0.49653992 65280
0.13712317 -0.49458897 0.49652386 65280
0.14203309 -0.49525523 0.49624509 65280
0.14713417 -0.49476296 0.49575183 65280
0.15062843 -0.49476296 0.49575183 65280
0.18819183 -0.49476296 0.49575183 65280
0.19255966 -0.49476296 0.49575183 65280
0.19605392 -0.49476296 0.49575183 65280
0.30961767 -0.49476296 0.49575183 65280
0.31342259 -0.49474102 0.49651849 65280
0.31532902 -0.4955014 0.49649173 65280
-0.28259084 -0.48995757 0.50283712 65280
-0.27677655 -0.4901638 0.50244439 65280
-0.27223498 -0.4905979 0.50204366 65280
-0.26839665 -0.48971528 0.50258851 65280
-0.25773063 -0.48947293 0.50233984 65280
-0.25233731 -0.48923063 0.50209111 65280
-0.24743956 -0.48995757 0.50283712 65280
-0.23777294 -0.48995757 0.50283712 65280
-0.23267995 -0.48980033 0.50207138 65280
-0.22771193 -0.48988503 0.50155449 65280
-0.22222795 -0.4893989 0.50105792 65280
-0.21691462 -0.49005222 0.50052166 65280
-0.21241441 -0.48978007 0.50024164 65280
-0.20777939 -0.48949522 0.50025159 65280
-0.20279592 -0.48981014 0.50027281 65280
-0.19744301 -0.48879269 0.50043637 65280
-0.19235095 -0.48997116 0.50043893 65280
-0.18747662 -0.48995933 0.49962726 65280
-0.18307424 -0.48936373 0.49862263 65280
-0.17783284 -0.49013507 0.49821252 65280
-0.17266154 -0.4896068 0.49976748 65280
-0.16831362 -0.4902339 0.50139594 65280
-0.16262814 -0.49028754 0.50220877 65280
-0.15776515 -0.49061233 0.50230026 65280
-0.15234289 -0.49012771 0.50180298 65280
-0.14758849 -0.48998207 0.50225788 65280
-0.14374322 -0.48995757 0.50283712 65280
-0.13671295 -0.48995757 0.50283712 65280
-0.13272879 -0.49014214 0.50205952 65280
-0.12764043 -0.48964188 0.50130606 65280
-0.12234958 -0.4895204 0.50118208 65280
-0.11703144 -0.49005246 0.5005216 65280
-0.11177438 -0.48927727 0.50093371 65280
-0.10739351 -0.4892773 0.50093377 65280
-0.10303906 -0.48939919 0.50105762 65280
-0.097421758 -0.48919415 0.50033081 65280
-0.092482954 -0.4899717 0.50043869 65280
-0.08746054 -0.48985863 0.5006246 65280
-0.082024671 -0.4895204 0.50118208 65280
-0.077632762 -0.4894596 0.50111997 65280
-0.073186807 -0.48903498 0.50068504 65280
-0.067898214 -0.48879269 0.50043637 65280
-0.06267748 -0.48903537 0.50068486 65280
-0.057422612 -0.48903498 0.50068504 65280
-0.052219946 -0.4895204 0.50118208 65280
-0.046972364 -0.48964193 0.50130618 65280
-0.042588234 -0.4896419 0.50130612 65280
-0.037977956 -0.49013156 0.50090426 65280
-0.033384327 -0.4897517 0.49987248 65280
-0.027579268 -0.49013507 0.49821252 65280
-0.024085002 -0.49013507 0.49821252 65280
-0.0022458206 -0.49013507 0.49821252 65280
0.0021220155 -0.49013507 0.49821252 65280
0.005616284 -0.49013507 0.49821252 65280
0.044053242 -0.49013507 0.49821252 65280
0.047595691 -0.49062276 0.49870822 65280
0.052842308 -0.49062276 0.49870822 65280
0.058116928 -0.4908666 0.49895611 65280
0.062491283 -0.4908666 0.49895611 65280
0.066765986 -0.49013507 0.49821252 65280
0.070260257 -0.49013507 0.49821252 65280
-0.34762076 -0.48530203 0.50531256 65280
-0.34209347 -0.48571795 0.50452507 65280
-0.33745146 -0.48535794 0.50415027 65280
-0.33246079 -0.48503637 0.50454772 65280
-0.30807555 -0.48530206 0.50531256 65280
-0.30226713 -0.48534673 0.50438267 65280
-0.2973496 -0.48476982 0.50378335 65280
-0.292326 -0.48548377 0.50375968 65280
-0.28743646 -0.48613304 0.50373805 65280
-0.28237277 -0.48583794 0.50308609 65280
-0.27792504 -0.48503637 0.50290549 65280
-0.27281031 -0.48508918 0.50265718 65280
-0.26768893 -0.48533076 0.50290626 65280
-0.26247647 -0.48541075 0.50298959 65280
-0.25725067 -0.48543918 0.50232726 65280
-0.25216231 -0.48604858 0.50219738 65280
-0.24781194 -0.48545027 0.50206256 65280
-0.24264641 -0.48619086 0.50241303 65280
-0.23745896 -0.48467582 0.50253099 65280
-0.23273861 -0.48543918 0.50232726 65280
-0.22703506 -0.4853397 0.501706 65280
-0.22271667 -0.4862318 0.50142044 65280
-0.21889049 -0.48550719 0.50067323 65280
-0.17084429 -0.48550719 0.50067323 65280
-0.16764057 -0.4855805 0.50195551 65280
-0.16240463 -0.48484898 0.50240743 65280
-0.15748437 -0.48554236 0.50243425 65280
-0.15238364 -0.48619306 0.50234711 65280
-0.14722617 -0.48576307 0.50231689 65280
-0.14238589 -0.48523033 0.50280237 65280
-0.13776354 -0.48494697 0.50281149 65280
-0.13263834 -0.48558086 0.50195533 65280
-0.12729333 -0.48599026 0.50117135 65280
-0.12192453 -0.48550719 0.50067323 65280
-0.11668313 -0.48550719 0.50067323 65280
-0.11318884 -0.48550719 0.50067323 65280
-0.10969459 -0.48550719 0.50067323 65280
-0.085234702 -0.48550719 0.50067323 65280
-0.082614005 -0.48550719 0.50067323 65280
-0.078246161 -0.48550719 0.50067323 65280
-0.073878333 -0.48550719 0.50067323 65280
-0.052064169 -0.48574877 0.50092232 65280
-0.046866726 -0.4854601 0.50183082 65280
-0.042493891 -0.48545992 0.50183088 65280
-0.038527913 -0.48548386 0.50125194 65280
-0.38044921 -0.48303249 0.50538671 65280
-0.3773948 -0.48114151 0.50554276 65280
-0.3724736 -0.48100829 0.50570792 65280
-0.36701319 -0.48132092 0.50573051 65280
-0.36234227 -0.48084414 0.50584245 65280
-0.35772333 -0.48082781 0.50674772 65280
-0.3523472 -0.48155838 0.50659513 65280
-0.34772417 -0.48112634 0.50583386 65280
-0.34304354 -0.48080114 0.50479341 65280
-0.33707342 -0.48046684 0.50391948 65280
-0.33242446 -0.48097998 0.50421292 65280
-0.32767269 -0.48122686 0.50489062 65280
-0.32273537 -0.4815132 0.50562823 65280
-0.31724352 -0.48029262 0.50593752 65280
-0.31242421 -0.48075318 0.50578964 65280
-0.30770391 -0.48039639 0.50537264 65280
-0.30240589 -0.48094457 0.50442052 65280
-0.29795116 -0.48060435 0.50365764 65280
-0.29259634 -0.4814176 0.5036971 65280
-0.28745711 -0.48159701 0.50388485 65280
-0.28294301 -0.48135775 0.50363451 65280
-0.27741948 -0.48087925 0.50313389 65280
-0.27392522 -0.48087928 0.50313389 65280
-0.37875327 -0.47779402 0.50477439 65280
-0.36827046 -0.47779402 0.50477439 65280
-0.3614608 -0.47648835 0.50584614 65280
-0.3573744 -0.47648525 0.50725001 65280
-0.35259157 -0.4767223 0.50732625 65280
-0.34786215 -0.47591868 0.50622451 65280
-0.32197142 -0.47779402 0.50477439 65280
-0.31935072 -0.47779402 0.50477439 65280
-0.30275294 -0.47779402 0.50477439 65280
-0.35717982 -0.47351927 0.5076136 65280
-0.35280997 -0.47313359 0.5078187 65280
-0.34905198 -0.47316611 0.50723505 65280
0.2022287 -0.55299956 0.47497997 65280
0.21373762 -0.55299956 0.47497997 65280
0.20384908 -0.55181068 0.47504586 65280
0.20733719 -0.55167496 0.47492921 65280
0.21077086 -0.55218512 0.47428048 65280
0.27482343 -0.51860583 0.49326742 65280
0.27836466 -0.51860583 0.49326742 65280
0.28190586 -0.51860589 0.49326748 65280
0.12432215 -0.51391578 0.49576116 65280
0.12810449 -0.51408702 0.49499065 65280
0.13304441 -0.51419252 0.49485898 65280
0.13750035 -0.51431906 0.49498045 65280
0.14172909 -0.51499963 0.49476019 65280
0.14734 -0.51391584 0.49576122 65280
0.1526518 -0.51391584 0.49576122 65280
0.15796362 -0.51391584 0.49576122 65280
0.16311425 -0.51341122 0.49527439 65280
0.16745496 -0.51315892 0.49503106 65280
0.1720017 -0.51431906 0.49498045 65280
0.17713451 -0.51381373 0.49449414 65280
0.18239363 -0.51368713 0.49437267 65280
0.18787967 -0.51419258 0.49485895 65280
0.19160508 -0.51391578 0.49576116 65280
0.20330894 -0.51418465 0.49524081 65280
0.20728536 -0.51406598 0.49473754 65280
0.21257338 -0.51480561 0.49428135 65280
0.21763578 -0.51438278 0.49454212 65280
0.22314644 -0.5142746 0.49443784 65280
0.22756582 -0.51472169 0.49420005 65280
0.23225024 -0.51501143 0.49418765 65280
0.23708783 -0.51438278 0.49454212 65280
0.24277367 -0.51431906 0.49498045 65280
0.24769089 -0.51408702 0.49499059 65280
0.25280282 -0.51426822 0.4947648 65280
0.25794676 -0.51439017 0.49421468 65280
0.26231173 -0.51501143 0.49418765 65280
0.26751876 -0.51443142 0.49421296 65280
0.27238172 -0.51421541 0.49371424 65280
0.27763641 -0.51413077 0.49363339 65280
0.28223586 -0.51446772 0.49395764 65280
0.28647116 -0.51482236 0.49463195 65280
0.29252946 -0.51391584 0.49576122 65280
0.29784128 -0.51391584 0.49576122 65280
0.30315313 -0.51469743 0.49534547 65280
0.3066943 -0.51391578 0.49576116 65280
0.31289142 -0.51391578 0.49576116 65280
0.31764308 -0.51411742 0.49537084 65280
-0.15897438 -0.50922579 0.4982549 65280
-0.02883504 -0.50922579 0.4982549 65280
-0.020867324 -0.50922579 0.4982549 65280
-0.019096721 -0.50922579 0.4982549 65280
-0.011129005 -0.50922579 0.4982549 65280
-0.0075877984 -0.50922579 0.4982549 65280
0.014544743 -0.50922579 0.4982549 65280
0.018428896 -0.50955111 0.4976289 65280
0.022206739 -0.50949693 0.49773332 65280
0.026926612 -0.5089758 0.49801043 65280
0.032250777 -0.50922579 0.49825495 65280
0.039333191 -0.50922579 0.4982549 65280
0.041989096 -0.50922579 0.4982549 65280
0.052907813 -0.50974691 0.49797788 65280
0.056997221 -0.50963247 0.49747238 65280
0.062305119 -0.50963247 0.49747238 65280
0.067563199 -0.5092563 0.49710613 65280
0.072867922 -0.51003814 0.49669039 65280
0.078170732 -0.51029778 0.49655235 65280
0.082000963 -0.51003838 0.49669021 65280
0.087032974 -0.50938165 0.49722821 65280
0.092451297 -0.50922579 0.49825495 65280
0.097763099 -0.50922579 0.49825495 65280
0.11752428 -0.50955111 0.4976289 65280
0.12214942 -0.51023281 0.49658683 65280
0.12729757 -0.50931132 0.4948118 65280
0.1325532 -0.50918555 0.49468988 65280
0.13756283 -0.50930673 0.49504071 65280
0.14249124 -0.51006514 0.49554354 65280
0.14734587 -0.51052213 0.49575347 65280
0.15231456 -0.51044124 0.49590978 65280
0.15761466 -0.51044124 0.49590978 65280
0.16287422 -0.51031584 0.49578768 65280
0.16792472 -0.50956249 0.49505579 65280
0.1730876 -0.50918597 0.49468967 65280
0.17790815 -0.50870359 0.49445534 65280
0.182189 -0.50916529 0.49443638 65280
0.18746465 -0.50993896 0.49542183 65280
0.19299597 -0.50978684 0.49644649 65280
0.19741379 -0.50978684 0.49644649 65280
0.20213482 -0.50995326 0.49560294 65280
0.2074527 -0.50918591 0.4946897 65280
0.21213853 -0.50916529 0.49443632 65280
0.21703959 -0.50893438 0.49444583 65280
0.22226872 -0.50880861 0.49432394 65280
0.22760843 -0.50893444 0.49444589 65280
0.23289287 -0.50893438 0.49444583 65280
0.23747286 -0.50931114 0.49481189 65280
0.24205808 -0.50968784 0.49517789 65280
0.24728894 -0.50956249 0.49505579 65280
0.25226912 -0.50893438 0.49444583 65280
0.25749043 -0.50880861 0.49432394 65280
0.2626434 -0.50855708 0.49408019 65280
0.26792392 -0.50933421 0.49366701 65280
0.27320445 -0.50933421 0.49366701 65280
0.27781051 -0.50893438 0.49444589 65280
0.28223819 -0.50945675 0.49518746 65280
0.28768298 -0.51004553 0.49636284 65280
0.29237384 -0.51032627 0.4966788 65280
0.2973533 -0.50995404 0.4966093 65280
0.30248338 -0.51044124 0.49590978 65280
0.30778348 -0.51044124 0.49590978 65280
0.3123157 -0.5106293 0.49609292 65280
0.31677225 -0.510692 0.49615392 65280
-0.22166809 -0.50416422 0.50037992 65280
-0.21768621 -0.50455505 0.50017214 65280
-0.21386309 -0.50453568 0.50074863 65280
-0.19252215 -0.50428802 0.50050282 65280
-0.1875473 -0.50517654 0.49995494 65280
-0.1826082 -0.50535369 0.49918118 65280
-0.1781882 -0.50535369 0.49918118 65280
-0.1726321 -0.5062772 0.49914321 65280
-0.16765122 -0.50556731 0.49939117 65280
-0.16234425 -0.50556731 0.49939117 65280
-0.15701042 -0.50625885 0.49888867 65280
-0.15211084 -0.50471473 0.49997395 65280
-0.14746547 -0.50453568 0.50074863 65280
-0.13684185 -0.50453568 0.50074863 65280
-0.13238284 -0.50519353 0.50021011 65280
-0.1269796 -0.50404036 0.50025696 65280
-0.12258668 -0.50494587 0.49996433 65280
-0.11813354 -0.50404036 0.50025696 65280
-0.11382399 -0.50453568 0.50074863 65280
-0.096592523 -0.50486386 0.50012118 65280
-0.092508584 -0.50494587 0.49996427 65280
-0.088426478 -0.5047152 0.49997371 65280
-0.082838446 -0.50453573 0.50074869 65280
-0.078411937 -0.50453568 0.50074863 65280
-0.058022365 -0.50428808 0.50050294 65280
-0.05208369 -0.50495797 0.49958035 65280
-0.047366504 -0.50501454 0.49952331 65280
-0.042073216 -0.5056029 0.49942613 65280
-0.037276924 -0.5058971 0.49937758 65280
-0.033228453 -0.50586307 0.49928781 65280
-0.027908577 -0.50613421 0.49876615 65280
-0.022587918 -0.5057615 0.49839801 65280
-0.017283155 -0.50563735 0.49827528 65280
-0.011987767 -0.5057615 0.49839801 65280
-0.007571036 -0.5057615 0.49839801 65280
-0.0031577516 -0.50638342 0.49901113 65280
0.0021489367 -0.50494587 0.49996427 65280
0.007101615 -0.50502741 0.49980772 65280
0.012757595 -0.5062592 0.49888843 65280
0.018036684 -0.50551313 0.49815264 65280
0.022462726 -0.5057615 0.49839801 65280
0.026873281 -0.50563735 0.49827528 65280
0.032179531 -0.5057615 0.49839801 65280
0.037517354 -0.5062592 0.49888849 65280
0.042842824 -0.50650805 0.49913365 65280
0.047882948 -0.50512099 0.49962848 65280
0.052547928 -0.50547832 0.4993037 65280
0.056702647 -0.50579971 0.49894401 65280
0.062213298 -0.50576156 0.49839807 65280
0.067396671 -0.5048908 0.49753976 65280
0.072842278 -0.50454843 0.49669698 65280
0.077633753 -0.50466502 0.49643284 65280
0.083167352 -0.50426853 0.49692678 65280
0.087668605 -0.50482869 0.49747837 65280
0.09227062 -0.50588584 0.49852079 65280
0.097619116 -0.50613421 0.49876615 65280
0.10292224 -0.50613463 0.49876598 65280
0.10793682 -0.5062772 0.49914321 65280
0.11211226 -0.5061233 0.49914944 65280
0.1170091 -0.50588578 0.49852073 65280
0.12223464 -0.50486821 0.49701232 65280
0.12667006 -0.50583732 0.49552631 65280
0.13239063 -0.50622588 0.49531972 65280
0.13802318 -0.50560421 0.49565026 65280
0.14297847 -0.50495976 0.49613452 65280
0.14796747 -0.50559342 0.4961091 65280
0.15214901 -0.50575423 0.49579698 65280
0.15707138 -0.50557387 0.49585515 65280
0.16187352 -0.50583732 0.49552631 65280
0.16759409 -0.50622588 0.49531972 65280
0.17199451 -0.50622588 0.49531972 65280
0.18255556 -0.50622588 0.49531972 65280
0.18736395 -0.50575423 0.49579698 65280
0.19228441 -0.50401932 0.49668169 65280
0.19761455 -0.50466233 0.49652854 65280
0.20250507 -0.50575423 0.49579698 65280
0.23888108 -0.50622588 0.49531972 65280
0.24240142 -0.50622588 0.49531972 65280
0.2472419 -0.50583732 0.49552631 65280
0.25090894 -0.50570786 0.49559516 65280
0.28244534 -0.50583732 0.49552631 65280
0.2874561 -0.50497127 0.49643981 65280
0.29278308 -0.50426853 0.49692672 65280
0.29758257 -0.50419962 0.49662364 65280
0.30275169 -0.50577414 0.49588349 65280
0.30752781 -0.50544882 0.4957329 65280
0.31208274 -0.5056988 0.49597746 65280
0.3164849 -0.50492173 0.49639061 65280
-0.30593446 -0.49984568 0.50324237 65280
-0.30416387 -0.49984568 0.50324237 65280
-0.28734314 -0.49984568 0.50324237 65280
-0.28277859 -0.50116289 0.5021646 65280
-0.27746764 -0.50116289 0.5021646 65280
-0.27229297 -0.50140899 0.50241113 65280
-0.2687518 -0.50140899 0.50241113 65280
-0.26343998 -0.50140899 0.50241113 65280
-0.25800231 -0.50116283 0.50216448 65280
-0.25370166 -0.50140899 0.50241113 65280
-0.24750455 -0.49984568 0.50324243 65280
-0.24042214 -0.49984568 0.50324237 65280
-0.23688093 -0.50062734 0.50282681 65280
-0.23245442 -0.50140899 0.50241113 65280
-0.22786002 -0.50182146 0.50162554 65280
-0.22260997 -0.50131178 0.50087726 65280
-0.21764535 -0.50071263 0.50051636 65280
-0.21250536 -0.50108224 0.50088608 65280
-0.20824349 -0.50106138 0.50146341 65280
-0.20294015 -0.50067055 0.50167125 65280
-0.19773376 -0.50169802 0.50150239 65280
-0.19245882 -0.50101596 0.5005815 65280
-0.18771961 -0.49937317 0.49941647 65280
-0.18290626 -0.50140566 0.49882656 65280
-0.17726097 -0.50077188 0.49870515 65280
-0.17228924 -0.50050467 0.49911675 65280
-0.16737266 -0.50041193 0.49970555 65280
-0.16168213 -0.50072902 0.50002217 65280
-0.15746821 -0.50099778 0.49960965 65280
-0.15339638 -0.50083452 0.50012797 65280
-0.14809543 -0.50132799 0.50113291 65280
-0.14289851 -0.50169802 0.50150239 65280
-0.13755855 -0.50157452 0.50137937 65280
-0.13212281 -0.50108182 0.50088626 65280
-0.12719454 -0.50131178 0.50087726 65280
-0.12288169 -0.50070423 0.50074726 65280
-0.11790133 -0.50071228 0.50051653 65280
-0.11279965 -0.50157452 0.50137937 65280
-0.1078859 -0.50159127 0.50163472 65280
-0.10179774 -0.50143063 0.50183344 65280
-0.097185433 -0.50145948 0.5010252 65280
-0.092806682 -0.50040841 0.50045162 65280
-0.087889738 -0.50071228 0.50051653 65280
-0.082675345 -0.50120497 0.50100958 65280
-0.077431045 -0.50157452 0.50137937 65280
-0.072161645 -0.50182146 0.50162554 65280
-0.066853739 -0.50182146 0.50162554 65280
-0.062407821 -0.50163627 0.50144088 65280
-0.057936441 -0.50120497 0.50100964 65280
-0.052531496 -0.50021923 0.50002372 65280
-0.04728581 -0.50071192 0.50051671 65280
-0.041970279 -0.50046539 0.50027031 65280
-0.037549295 -0.50034231 0.50014699 65280
-0.032889098 -0.50046384 0.49937451 65280
-0.027805666 -0.50115794 0.49858063 65280
-0.022510558 -0.50091028 0.4983348 65280
-0.017224049 -0.50156349 0.49779877 65280
-0.011503488 -0.50117493 0.49800539 65280
-0.0075455662 -0.50097215 0.49839628 65280
-0.0028944593 -0.50108993 0.49902123 65280
0.0021400561 -0.49984962 0.49965391 65280
0.007719493 -0.50024486 0.49925482 65280
0.012357098 -0.50138766 0.49857175 65280
0.017979404 -0.50156349 0.49779877 65280
0.022379838 -0.50156343 0.49779877 65280
0.027140761 -0.50109041 0.49827677 65280
0.031620745 -0.50117493 0.49800539 65280
0.03771599 -0.50123906 0.49842429 65280
0.042928148 -0.50108993 0.49902132 65280
0.047950089 -0.49972612 0.49953079 65280
0.052892815 -0.49966949 0.49971184 65280
0.057302494 -0.50085723 0.49946862 65280
0.06179814 -0.50048232 0.49879843 65280
0.066824198 -0.50117493 0.49800536 65280
0.071664676 -0.50156343 0.49779877 65280
0.08398588 -0.50156343 0.49779877 65280
0.08750622 -0.50156343 0.49779877 65280
0.092313685 -0.50123906 0.49842429 65280
0.097283602 -0.50128174 0.49870351 65280
0.10254361 -0.50115794 0.49858063 65280
0.10813724 -0.50108993 0.49902132 65280
0.11277665 -0.50045472 0.49906778 65280
0.11703871 -0.50153631 0.49871925 65280
0.12071544 -0.50129312 0.49831998 65280
-0.33603472 -0.49671897 0.50490487 65280
-0.31183648 -0.49724013 0.50462788 65280
-0.30755487 -0.49725637 0.50424159 65280
-0.30194792 -0.49676794 0.50374633 65280
-0.29726005 -0.49736437 0.50410873 65280
-0.29292673 -0.49690539 0.50412631 65280
-0.28752139 -0.49628025 0.50325054 65280
-0.28235573 -0.49710262 0.5025773 65280
-0.27732903 -0.49673462 0.50250566 65280
-0.2722213 -0.49654204 0.50230908 65280
-0.26768908 -0.49652979 0.50259882 65280
-0.26279366 -0.49706054 0.50283575 65280
-0.25763574 -0.49710262 0.5025773 65280
-0.25246042 -0.49673373 0.50274515 65280
-0.24695779 -0.49640217 0.50337458 65280
-0.24204648 -0.49663144 0.50336587 65280
-0.23741828 -0.49641854 0.50298834 65280
-0.23253846 -0.49657202 0.50234038 65280
-0.22757207 -0.49640992 0.50183332 65280
-0.22327404 -0.49585134 0.50121343 65280
-0.21823578 -0.49627942 0.50060838 65280
-0.21260321 -0.49651253 0.50048441 65280
-0.20742464 -0.49636936 0.500938 65280
-0.2023415 -0.49686018 0.50143218 65280
-0.19700502 -0.49673748 0.50130868 65280
-0.19265461 -0.49638301 0.50055325 65280
-0.18972096 -0.49690104 0.50027782 65280
-0.17035906 -0.49690104 0.50027782 65280
-0.16664928 -0.49563324 0.50109351 65280
-0.1621637 -0.49588442 0.50130373 65280
-0.15781784 -0.49515265 0.50120747 65280
-0.15280734 -0.49551052 0.50126886 65280
-0.14764619 -0.49591899 0.50168091 65280
-0.14247662 -0.49632639 0.50209343 65280
-0.13714203 -0.49616358 0.50192833 65280
-0.13225 -0.49598932 0.50140983 65280
-0.12791732 -0.49555728 0.50131589 65280
-0.12283441 -0.49612397 0.500691 65280
-0.11711384 -0.49651253 0.50048441 65280
-0.11235654 -0.49649212 0.50106156 65280
-0.10687653 -0.49642164 0.50150353 65280
-0.1025511 -0.49709111 0.50206441 65280
-0.097898148 -0.49626303 0.50107008 65280
-0.093351513 -0.49651253 0.50048441 65280
-0.087190911 -0.49651253 0.50048441 65280
-0.082411438 -0.49649206 0.50106156 65280
-0.077164635 -0.49673748 0.50130868 65280
-0.072115779 -0.49627706 0.50174224 65280
-0.067292824 -0.49624664 0.50153178 65280
-0.063061126 -0.49591923 0.50168073 65280
-0.057996117 -0.49610645 0.50118566 65280
-0.0524275 -0.49612397 0.500691 65280
-0.047146987 -0.49612397 0.500691 65280
-0.04187724 -0.4962467 0.5008145 65280
-0.037759397 -0.49638301 0.50055325 65280
-0.033945687 -0.49690104 0.50027782 65280
-0.38219893 -0.49267709 0.50660098 65280
-0.37784061 -0.49221945 0.50661778 65280
-0.3732478 -0.49187627 0.50663036 65280
-0.36736378 -0.49130428 0.5066514 65280
-0.36181301 -0.49207407 0.50646859 65280
-0.35733572 -0.49319386 0.50580847 65280
-0.35251415 -0.49270585 0.50565445 65280
-0.34740227 -0.49214002 0.50507438 65280
-0.34246862 -0.49181759 0.5047425 65280
-0.33723122 -0.49189842 0.50482541 65280
-0.33237293 -0.4921971 0.50567329 65280
-0.3270202 -0.49178737 0.50714964 65280
-0.32186988 -0.49202895 0.50739872 65280
-0.31699288 -0.49230844 0.50687248 65280
-0.31277722 -0.49306104 0.50571728 65280
-0.30738631 -0.49213997 0.5050745 65280
-0.30231598 -0.49119109 0.50444651 65280
-0.29753166 -0.49141303 0.50432849 65280
-0.2923716 -0.49164945 0.50387913 65280
-0.28751734 -0.49164385 0.50335622 65280
-0.28301013 -0.49223864 0.50275689 65280
-0.27860969 -0.49223864 0.50275689 65280
-0.26672852 -0.49185008 0.50296348 65280
-0.26224011 -0.49161696 0.5030874 65280
-0.25748762 -0.49223864 0.50275689 65280
-0.25308719 -0.49223864 0.50275689 65280
-0.24780667 -0.49223864 0.50275689 65280
-0.24264549 -0.49170464 0.50341827 65280
-0.23724563 -0.49223864 0.50275689 65280
-0.23372529 -0.49223864 0.50275689 65280
-0.16507857 -0.49223864 0.50275689 65280
-0.14659673 -0.49223864 0.50275689 65280
-0.14184426 -0.49161696 0.5030874 65280
-0.13735583 -0.49185008 0.50296348 65280
-0.38136908 -0.48753977 0.50601041 65280
-0.37773684 -0.48752144 0.50639755 65280
-0.37254056 -0.48764187 0.50652236 65280
-0.36716017 -0.48752144 0.50639755 65280
-0.36218733 -0.48707718 0.50618082 65280
-0.35711408 -0.48703998 0.50589865 65280
-0.35253698 -0.48679912 0.50564909 65280
-0.34813651 -0.48757619 0.50523591 65280
-0.34461617 -0.48757619 0.50523591 65280
-0.33141488 -0.48757619 0.50523591 65280
-0.32757834 -0.48764151 0.50652254 65280
-0.32284567 -0.48848268 0.50739658 65280
-0.31754777 -0.48848268 0.50739658 65280
-0.31240004 -0.4873409 0.50621051 65280
-0.30765256 -0.48757619 0.50523591 65280
-0.30413219 -0.48757619 0.50523591 65280
-0.36045772 -0.48446792 0.50688863 65280
-0.35693738 -0.48446792 0.50688863 65280
-0.32261401 -0.48446792 0.50688863 65280
-0.31821355 -0.48446792 0.50688863 65280
-0.31469324 -0.48446792 0.50688863 65280
0.20094605 -0.55546165 0.47782367 65280
0.21775949 -0.55422115 0.47602934 65280
0.22220181 -0.55518937 0.4775908 65280
0.22512156 -0.55628431 0.47889632 65280
0.20381428 -0.55309492 0.47870442 65280
0.2077949 -0.55153197 0.48000741 65280
0.21255122 -0.55138981 0.47795936 65280
0.21733321 -0.55149877 0.47832638 65280
0.22223015 -0.5525943 0.48010331 65280
0.22512156 -0.55234712 0.48098972 65280
0.20906878 -0.54841 0.48308313 65280
0.21215045 -0.5479477 0.48156723 65280
0.21706662 -0.54687816 0.48062587 65280
0.22181323 -0.54775929 0.48184359 65280
0.22512156 -0.54841 0.48308313 65280
0.21307389 -0.544599 0.48454323 65280
0.21742044 -0.54305643 0.48391622 65280
0.22217573 -0.54380876 0.48458594 65280
0.22512156 -0.54447281 0.48517656 65280
0.21441971 -0.54132307 0.4868513 65280
0.21816981 -0.53984618 0.48749506 65280
0.2224461 -0.53974819 0.48768866 65280
0.22512156 -0.53974825 0.48768866 65280
0.24295799 -0.53344876 0.49103814 65280
0.24741709 -0.53344876 0.49103814 65280
0.25187621 -0.53344876 0.49103814 65280
0.13326402 -0.52872419 0.49355024 65280
0.20282605 -0.52872419 0.49355024 65280
0.20728515 -0.52872419 0.49355024 65280
0.21299282 -0.52935416 0.49321532 65280
0.21824181 -0.52984905 0.49295214 65280
0.2224461 -0.53029907 0.49271289 65280
0.2266504 -0.52984905 0.49295214 65280
0.23225613 -0.52951163 0.49313158 65280
0.23754872 -0.53043234 0.49245325 65280
0.2425427 -0.53018123 0.49145424 65280
0.24776436 -0.52992249 0.49121436 65280
0.2523064 -0.53011626 0.49139443 65280
0.25716487 -0.53095734 0.49217412 65280
0.26257804 -0.5310865 0.49229419 65280
0.26792896 -0.52951163 0.49313158 65280
0.27238804 -0.52872419 0.49355024 65280
0.27684715 -0.52872419 0.49355024 65280
0.2821981 -0.52872419 0.49355024 65280
0.28754902 -0.52872419 0.49355024 65280
0.29200813 -0.52872419 0.49355024 65280
0.3036018 -0.52872419 0.49355024 65280
0.30752581 -0.52935416 0.49321532 65280
0.31277484 -0.52984911 0.49295214 65280
0.31787094 -0.5310865 0.49229419 65280
0.32120323 -0.5306989 0.49193406 65280
0.01821913 -0.52557445 0.49522501 65280
0.021786414 -0.52557445 0.49522501 65280
0.027494067 -0.52620441 0.49489003 65280
0.03248826 -0.52636188 0.49480632 65280
0.037839189 -0.52557445 0.49522501 65280
0.044973757 -0.52557445 0.49522501 65280
0.04764922 -0.52557445 0.49522501 65280
0.052108321 -0.52557445 0.49522501 65280
0.05745925 -0.52557445 0.49522501 65280
0.10918485 -0.52557445 0.49522501 65280
0.11275214 -0.52557445 0.49522501 65280
0.11810306 -0.52557445 0.49522501 65280
0.12256217 -0.52557445 0.49522501 65280
0.12734035 -0.52605075 0.49474528 65280
0.13211372 -0.52533662 0.49384144 65280
0.13762246 -0.52597773 0.49444434 65280
0.14300476 -0.52610576 0.49456501 65280
0.14753315 -0.52557445 0.49522501 65280
0.15243816 -0.52596819 0.49501565 65280
0.15734316 -0.52636188 0.49480632 65280
0.16269411 -0.52636188 0.49480632 65280
0.16715321 -0.52557445 0.49522501 65280
0.17874688 -0.52557445 0.49522501 65280
0.18276006 -0.52596819 0.49501565 65280
0.18752789 -0.52597773 0.49444434 65280
0.19301601 -0.52636188 0.49480632 65280
0.19747512 -0.52636188 0.49480632 65280
0.20227326 -0.52581036 0.49445245 65280
0.20727663 -0.52559638 0.49385425 65280
0.21216977 -0.52520823 0.49372095 65280
0.21766917 -0.52559316 0.49408251 65280
0.22278528 -0.52574342 0.49445564 65280
0.22712871 -0.52621204 0.49443305 65280
0.23197232 -0.52572119 0.49420321 65280
0.23717771 -0.52550918 0.49313617 65280
0.24201077 -0.52509499 0.49245986 65280
0.24734086 -0.52509499 0.49245983 65280
0.25267091 -0.52509499 0.49245986 65280
0.25779864 -0.52549475 0.49316409 65280
0.26240221 -0.52560955 0.49294132 65280
0.26747283 -0.52598858 0.49368358 65280
0.27268344 -0.52574337 0.49445564 65280
0.27746698 -0.5258497 0.49432367 65280
0.28253677 -0.52533662 0.49384144 65280
0.28731614 -0.5254423 0.49370974 65280
0.29232946 -0.52533668 0.49384144 65280
0.29745811 -0.52543604 0.49416599 65280
0.3025845 -0.52559561 0.49391943 65280
0.30787382 -0.52497411 0.49373215 65280
0.31232688 -0.52559638 0.49385425 65280
0.31699285 -0.52569491 0.49302173 65280
0.32018507 -0.52509499 0.4924598 65280
-0.10217668 -0.52084988 0.49773711 65280
-0.097360857 -0.52147985 0.49740216 65280
-0.094150297 -0.52084988 0.49773711 65280
-0.085232086 -0.52084988 0.49773711 65280
-0.08255662 -0.52084988 0.49773711 65280
-0.078097522 -0.52163732 0.49731842 65280
-0.073103324 -0.52147985 0.49740216 65280
-0.067395665 -0.52084988 0.49773711 65280
-0.062936567 -0.52084988 0.49773711 65280
-0.056693818 -0.52084988 0.49773711 65280
-0.053126533 -0.52084988 0.49773711 65280
-0.047775611 -0.52084988 0.49773711 65280
-0.042414781 -0.52151042 0.49719712 65280
-0.03704666 -0.52125657 0.49695462 65280
-0.03291193 -0.52137482 0.49745798 65280
-0.028155552 -0.52084988 0.49773711 65280
-0.016561881 -0.52084988 0.49773711 65280
-0.011843288 -0.52175725 0.49693108 65280
-0.0076399483 -0.5221709 0.49665722 65280
-0.0034383372 -0.52186596 0.49703503 65280
0.0021663562 -0.52163732 0.49731842 65280
0.0075172805 -0.52163732 0.49731842 65280
0.012857174 -0.52200139 0.4964956 65280
0.018180078 -0.52132255 0.49584994 65280
0.022622975 -0.52115256 0.49568862 65280
0.027071215 -0.52115256 0.49568862 65280
0.032415248 -0.52123797 0.49576905 65280
0.037814893 -0.52208608 0.49657649 65280
0.043169066 -0.5221709 0.49665722 65280
0.047614168 -0.52204365 0.49653614 65280
0.051972311 -0.52106845 0.4956075 65280
0.05732011 -0.52115333 0.4956882 65280
0.06253048 -0.5217517 0.49654979 65280
0.0681611 -0.52163732 0.49731842 65280
0.072620198 -0.52163732 0.49731842 65280
0.077041745 -0.5221709 0.49665722 65280
0.082390055 -0.5221709 0.49665722 65280
0.087709568 -0.52200174 0.49649549 65280
0.09308669 -0.5221709 0.49665722 65280
0.097519629 -0.52204406 0.49653593 65280
0.10200056 -0.5221709 0.49665722 65280
0.1073134 -0.5220015 0.49649563 65280
0.11260561 -0.52174711 0.4962534 65280
0.11793038 -0.52166247 0.49617249 65280
0.12287007 -0.52070272 0.49555036 65280
0.12691446 -0.52129447 0.49504679 65280
0.13179164 -0.52091742 0.49430355 65280
0.13718577 -0.52117276 0.49454525 65280
0.14248183 -0.52104509 0.4944244 65280
0.14794306 -0.52072901 0.49528459 65280
0.15278566 -0.52056539 0.49546143 65280
0.15707603 -0.5209989 0.49525118 65280
0.16219227 -0.52081364 0.49536544 65280
0.16763614 -0.52115363 0.49568814 65280
0.17282443 -0.52118027 0.49600416 65280
0.17700094 -0.52218711 0.49589354 65280
0.18186951 -0.52193809 0.49527094 65280
0.18697876 -0.52130044 0.49466616 65280
0.19226353 -0.52038884 0.49496216 65280
0.19765775 -0.52055907 0.49512333 65280
0.20267652 -0.52052099 0.49479756 65280
0.20815182 -0.52091742 0.49430358 65280
0.21259138 -0.52091742 0.49430355 65280
0.21703093 -0.52091742 0.49430358 65280
0.22252165 -0.52130044 0.49466616 65280
0.22774114 -0.52104509 0.49442437 65280
0.23301329 -0.52091742 0.49430358 65280
0.23791507 -0.52060789 0.49424163 65280
0.24239978 -0.52035749 0.49460131 65280
0.24699788 -0.52032948 0.49461621 65280
0.25254729 -0.52091742 0.49430358 65280
0.25787476 -0.52091742 0.49430355 65280
0.26300892 -0.52053553 0.49394032 65280
0.26764178 -0.52091742 0.49430358 65280
0.27208087 -0.52091777 0.49430329 65280
0.27730691 -0.5211184 0.49391347 65280
0.28273621 -0.5217014 0.49388671 65280
0.28792313 -0.52066284 0.49406135 65280
0.29250324 -0.52091742 0.49430355 65280
0.2967208 -0.52032948 0.49461621 65280
0.30219623 -0.5207901 0.49418241 65280
0.30781963 -0.52032948 0.49461621 65280
0.31292516 -0.5201335 0.4947204 65280
0.31736469 -0.52013344 0.4947204 65280
0.32002842 -0.52091742 0.49430358 65280
-0.27162266 -0.51612532 0.50024921 65280
-0.26716354 -0.51612532 0.50024921 65280
-0.26092076 -0.51612532 0.50024921 65280
-0.25824532 -0.51612532 0.50024921 65280
-0.2528944 -0.51612532 0.50024921 65280
-0.2475435 -0.5169127 0.49983051 65280
-0.24397621 -0.51612532 0.50024921 65280
-0.22078885 -0.51612532 0.50024921 65280
-0.21722156 -0.51612532 0.50024921 65280
-0.21187066 -0.51612532 0.50024921 65280
-0.20295243 -0.51612532 0.50024921 65280
-0.19760151 -0.51612532 0.50024921 65280
-0.1931424 -0.51612532 0.50024921 65280
-0.17798145 -0.51612532 0.50024921 65280
-0.17217337 -0.51645344 0.49962181 65280
-0.16715734 -0.5165354 0.49946484 65280
-0.16175885 -0.51716089 0.49888968 65280
-0.15762027 -0.51672029 0.49880034 65280
-0.15320061 -0.51703465 0.49944216 65280
-0.14765954 -0.51612532 0.50024921 65280
-0.14171408 -0.51665026 0.49997008 65280
-0.13673472 -0.51750326 0.49951652 65280
-0.13249859 -0.5177002 0.49941185 65280
-0.12803948 -0.51770014 0.49941185 65280
-0.12289174 -0.51703465 0.49944216 65280
-0.11728045 -0.51666117 0.49958679 65280
-0.11195985 -0.51678699 0.49970862 65280
-0.10744901 -0.51653546 0.49946487 65280
-0.10290194 -0.51686025 0.4986001 65280
-0.097503282 -0.51735115 0.49789864 65280
-0.092230752 -0.51694459 0.49868104 65280
-0.086930908 -0.51719689 0.49892443 65280
-0.082455829 -0.51707059 0.49880281 65280
-0.078009002 -0.51711249 0.49884346 65280
-0.072651774 -0.51702893 0.4987621 65280
-0.067362823 -0.51744866 0.4991681 65280
-0.062014505 -0.51744866 0.4991681 65280
-0.057557579 -0.51744866 0.4991681 65280
-0.053075049 -0.51719689 0.49892443 65280
-0.047705762 -0.51694489 0.49868095 65280
-0.042323899 -0.51666749 0.49812058 65280
-0.037235651 -0.51685166 0.49792153 65280
-0.032554727 -0.51754034 0.49808115 65280
-0.028113522 -0.51773036 0.49826324 65280
-0.022775283 -0.51702893 0.4987621 65280
-0.01720302 -0.51704669 0.49848521 65280
-0.01206826 -0.51697201 0.49753401 65280
-0.0076157358 -0.51659316 0.49716914 65280
-0.0029523023 -0.51638335 0.49784702 65280
0.0021620709 -0.5166077 0.49835685 65280
0.007502628 -0.5166918 0.49843797 65280
0.012836416 -0.51722497 0.49777681 65280
0.018143227 -0.51634008 0.49692607 65280
0.022587383 -0.51640332 0.49698687 65280
0.027018318 -0.51621354 0.49680465 65280
0.032354124 -0.51634008 0.49692607 65280
0.037700888 -0.51659322 0.49716914 65280
0.043054175 -0.51684576 0.4974122 65280
0.047509242 -0.51697218 0.49753386 65280
0.051879782 -0.51621354 0.49680465 65280
0.057207238 -0.5162136 0.49680465 65280
0.062565736 -0.51646662 0.49704757 65280
0.067911975 -0.51659316 0.49716908 65280
0.073224999 -0.51646662 0.49704757 65280
0.077629149 -0.51621354 0.49680465 65280
0.082068704 -0.51621354 0.49680465 65280
0.087439366 -0.51646662 0.49704757 65280
0.092791699 -0.51659322 0.49716914 65280
0.098123051 -0.51659316 0.49716908 65280
0.10249062 -0.51621354 0.49680465 65280
0.10700867 -0.51659322 0.49716914 65280
0.11231213 -0.51646662 0.49704757 65280
0.11761341 -0.51634008 0.49692607 65280
0.12244906 -0.51591575 0.49628341 65280
0.12805167 -0.51728207 0.49510384 65280
0.1324847 -0.51780397 0.49482635 65280
0.13691773 -0.51780397 0.49482635 65280
0.14401057 -0.51780397 0.49482635 65280
0.14755699 -0.51623833 0.49565881 65280
0.15287662 -0.51623833 0.49565881 65280
0.15819626 -0.51623833 0.49565881 65280
0.16262928 -0.51623833 0.49565881 65280
0.1670623 -0.51623833 0.49565881 65280
0.17858818 -0.51780397 0.49482635 65280
0.1830212 -0.51780397 0.49482635 65280
0.18745424 -0.51780397 0.49482635 65280
0.1930694 -0.51571643 0.4959363 65280
0.19735189 -0.51583511 0.49643958 65280
0.20215704 -0.51642811 0.49584109 65280
0.20784616 -0.51780397 0.49482635 65280
0.21848541 -0.51780397 0.49482635 65280
0.22114524 -0.51780397 0.49482635 65280
0.23887736 -0.51780397 0.49482635 65280
0.24863002 -0.51780397 0.49482635 65280
0.25217643 -0.51780397 0.49482635 65280
0.25572285 -0.51780397 0.49482635 65280
0.26636213 -0.51780397 0.49482635 65280
0.28941387 -0.51702112 0.49524257 65280
0.29260564 -0.51686454 0.49532583 65280
0.29768884 -0.51676017 0.49538133 65280
0.30138305 -0.51741254 0.49503446 65280
0.30758929 -0.51623833 0.49565881 65280
0.3120223 -0.51584691 0.49586692 65280
0.31778526 -0.51676017 0.49538133 65280
-0.36169651 -0.5114007 0.5027613 65280
-0.35812926 -0.5114007 0.5027613 65280
-0.35456198 -0.5114007 0.5027613 65280
-0.3171055 -0.51218814 0.50234264 65280
-0.31338456 -0.51220143 0.50195813 65280
-0.30811262 -0.51311344 0.5016619 65280
-0.30310401 -0.51188111 0.5022794 65280
-0.29837728 -0.5114007 0.5027613 65280
-0.29213452 -0.5114007 0.5027613 65280
-0.28767541 -0.5114007 0.5027613 65280
-0.28277725 -0.51188111 0.5022794 65280
-0.27786541 -0.51297557 0.50192392 65280
-0.27242625 -0.51280946 0.50176066 65280
-0.26736218 -0.51331872 0.5015797 65280
-0.26255992 -0.51269519 0.50164837 65280
-0.25766206 -0.51315558 0.5011487 65280
-0.25270954 -0.51338804 0.50113833 65280
-0.24704909 -0.51261026 0.50126886 65280
-0.2423964 -0.51241875 0.50205821 65280
-0.23728754 -0.51179445 0.50255197 65280
-0.23208524 -0.5119257 0.50248218 65280
-0.22785625 -0.51282609 0.50177699 65280
-0.22230178 -0.51313806 0.50089383 65280
-0.2169565 -0.51313806 0.50089377 65280
-0.2118264 -0.51331872 0.5015797 65280
-0.20774986 -0.51264375 0.50193858 65280
-0.2028541 -0.51272613 0.50167912 65280
-0.19740935 -0.51326311 0.50101608 65280
-0.19238141 -0.51332051 0.50083452 65280
-0.18756162 -0.51313806 0.50089383 65280
-0.18254785 -0.51240516 0.50041521 65280
-0.17746104 -0.51226193 0.50003827 65280
-0.17199957 -0.51188582 0.499672 65280
-0.16743383 -0.51150966 0.49930575 65280
-0.16287461 -0.51113468 0.49893883 65280
-0.15721957 -0.51136649 0.49892882 65280
-0.15241265 -0.51176083 0.49954969 65280
-0.1474428 -0.51301265 0.5007717 65280
-0.14224879 -0.51321161 0.50147486 65280
-0.13764864 -0.51301247 0.50077176 65280
-0.13300039 -0.51226193 0.50003827 65280
-0.12769718 -0.51238656 0.50016081 65280
-0.12224015 -0.51188582 0.499672 65280
-0.11690877 -0.51188582 0.499672 65280
-0.11254849 -0.51226079 0.50003892 65280
-0.10804913 -0.51201081 0.49979424 65280
-0.10266755 -0.51176006 0.4995501 65280
-0.097288996 -0.5122937 0.49888891 65280
-0.09196154 -0.51150972 0.49930573 65280
-0.087521993 -0.51150966 0.49930575 65280
-0.08314345 -0.51188582 0.499672 65280
-0.077774018 -0.51163507 0.4994278 65280
-0.072427534 -0.51150972 0.49930573 65280
-0.067182623 -0.5121358 0.49991667 65280
-0.062164068 -0.51196736 0.49951532 65280
-0.057899494 -0.51165378 0.49968207 65280
-0.052906904 -0.51163507 0.4994278 65280
-0.047566071 -0.51150966 0.49930575 65280
-0.042221267 -0.51163143 0.4989174 65280
-0.036668856 -0.51181644 0.49871793 65280
-0.032455716 -0.51204365 0.49864423 65280
-0.027772868 -0.51263452 0.49854583 65280
-0.023045912 -0.51136649 0.49892882 65280
-0.01736908 -0.51178235 0.49878317 65280
-0.01229833 -0.51252711 0.49844122 65280
-0.0076101488 -0.51307762 0.49847203 65280
-0.0034225869 -0.51163143 0.4989174 65280
0.0021584383 -0.51188582 0.499672 65280
0.0074875392 -0.51176047 0.49954987 65280
0.012582735 -0.51220816 0.49850965 65280
0.017681951 -0.51309288 0.49789762 65280
0.022863252 -0.51308823 0.49808884 65280
0.026998481 -0.51270151 0.49810573 65280
0.032330375 -0.51282686 0.49822778 65280
0.037437752 -0.51230216 0.4986012 65280
0.043236334 -0.51252699 0.4984411 65280
0.047417011 -0.51204365 0.49864423 65280
0.051249746 -0.51244015 0.4982447 65280
0.057123229 -0.513107 0.49732375 65280
0.062442858 -0.513107 0.49732375 65280
0.067762494 -0.513107 0.49732375 65280
0.071308918 -0.513107 0.49732375 65280
0.083721392 -0.513107 0.49732375 65280
0.087267816 -0.513107 0.49732375 65280
0.092655532 -0.51270151 0.49810573 65280
0.097955517 -0.51257575 0.49798384 65280
0.10280609 -0.51174825 0.4986935 65280
0.10711257 -0.51230216 0.4986012 65280
0.11220267 -0.51204371 0.49864426 65280
0.11701161 -0.51290429 0.49771476 65280
-0.38220841 -0.50667614 0.5052734 65280
-0.37774932 -0.50667614 0.5052734 65280
-0.37217543 -0.50805414 0.50454074 65280
-0.36704749 -0.50825095 0.50443608 65280
-0.36245614 -0.50885266 0.503833 65280
-0.35769209 -0.50841886 0.50340307 65280
-0.35260597 -0.50879073 0.5037716 65280
-0.3474274 -0.50798851 0.50457561 65280
-0.34207651 -0.50746357 0.50485474 65280
-0.3376174 -0.50825095 0.50443608 65280
-0.33315825 -0.50746357 0.50485474 65280
-0.32780737 -0.50825095 0.50443608 65280
-0.32237831 -0.50891459 0.50389445 65280
-0.31718472 -0.50773638 0.50272781 65280
-0.31205535 -0.50758082 0.50167799 65280
-0.30722654 -0.50767392 0.50176996 65280
-0.3020972 -0.50779885 0.5027889 65280
-0.29734004 -0.50879073 0.5037716 65280
-0.29240581 -0.50904733 0.50378621 65280
-0.28753656 -0.50769162 0.5029214 65280
-0.28218117 -0.50717854 0.50217497 65280
-0.27740759 -0.50770795 0.5024597 65280
-0.27298 -0.50709623 0.50233185 65280
-0.26768243 -0.50746161 0.50194347 65280
-0.26250437 -0.50693005 0.50192946 65280
-0.25742903 -0.50797331 0.50146925 65280
-0.25221381 -0.50758302 0.50162017 65280
-0.24696995 -0.50767428 0.50215411 65280
-0.24205253 -0.50815427 0.50290191 65280
-0.23757187 -0.50739396 0.50262666 65280
-0.23242263 -0.50717849 0.50217491 65280
-0.22701897 -0.50780374 0.50159979 65280
-0.22282013 -0.5074566 0.50078118 65280
-0.21756196 -0.50823241 0.50059521 65280
-0.21271722 -0.50759083 0.50138944 65280
-0.20749082 -0.50705427 0.50205219 65280
-0.20216163 -0.50705427 0.50205219 65280
-0.19762273 -0.50759131 0.50138909 65280
-0.19304137 -0.50800109 0.50060499 65280
-0.18785577 -0.50915778 0.50055629 65280
-0.18235047 -0.5086593 0.50006628 65280
-0.17694063 -0.50841004 0.49982119 65280
-0.16630135 -0.50841004 0.49982119 65280
-0.16452815 -0.50841004 0.49982119 65280
-0.15178357 -0.50839245 0.50039685 65280
-0.14669657 -0.50782514 0.50094116 65280
-0.14227597 -0.50759131 0.50138915 65280
-0.13813239 -0.5078519 0.50125062 65280
-0.13280536 -0.50915778 0.50055629 65280
-0.12738432 -0.50800109 0.50060499 65280
-0.12166232 -0.50857937 0.50058061 65280
-0.11710902 -0.50823241 0.50059521 65280
-0.11262398 -0.50760305 0.50100535 65280
-0.1079084 -0.50742471 0.50122607 65280
-0.10256681 -0.50734186 0.50114423 65280
-0.097625799 -0.50820559 0.50021309 65280
-0.091826499 -0.50841004 0.49982119 65280
-0.08709792 -0.5078882 0.50009865 65280
-0.08302144 -0.50800109 0.50060499 65280
-0.077452369 -0.50771868 0.50083607 65280
-0.072392076 -0.50734216 0.50114411 65280
-0.067078181 -0.50742519 0.50122583 65280
-0.062629856 -0.5073421 0.50114411 65280
-0.05819292 -0.50812531 0.50072765 65280
-0.054024756 -0.5081374 0.50034374 65280
-0.047496222 -0.50841004 0.49982119 65280
0.0021556122 -0.5086593 0.50006628 65280
0.0074733202 -0.50841004 0.49982119 65280
0.048257172 -0.50841004 0.49982119 65280
0.050030384 -0.50841004 0.49982119 65280
-0.38666752 -0.50352639 0.50694817 65280
-0.38310024 -0.50431383 0.50652945 65280
-0.37756565 -0.50406849 0.50628245 65280
-0.37212619 -0.50394577 0.50615895 65280
-0.36767033 -0.50394577 0.50615895 65280
-0.36226219 -0.50352097 0.50482756 65280
-0.35708153 -0.50362492 0.50463068 65280
-0.35247597 -0.50416619 0.50482833 65280
-0.34768093 -0.50314069 0.50474662 65280
-0.34239799 -0.50253594 0.50498319 65280
-0.33717307 -0.50324494 0.50454962 65280
-0.33218327 -0.50283968 0.50504827 65280
-0.32692578 -0.50389016 0.50519747 65280
-0.32208946 -0.50437534 0.50508112 65280
-0.31718332 -0.50297844 0.50432724 65280
-0.3125391 -0.50289959 0.50356019 65280
-0.30757013 -0.50265038 0.50338709 65280
-0.30195156 -0.50300539 0.50366569 65280
-0.29750866 -0.50313336 0.50413698 65280
-0.29240775 -0.50269085 0.50399482 65280
-0.28757241 -0.50367898 0.50324279 65280
-0.28244668 -0.50371307 0.50231862 65280
-0.2781491 -0.50396001 0.50256491 65280
-0.27299479 -0.50387728 0.50308079 65280
-0.26725566 -0.50353134 0.50309485 65280
-0.2622481 -0.50369209 0.50289613 65280
-0.25762171 -0.50371307 0.50231862 65280
-0.25227216 -0.50369632 0.50278062 65280
-0.24765971 -0.50307 0.50311357 65280
-0.24308321 -0.50299054 0.50369394 65280
-0.23779377 -0.50353134 0.50309485 65280
-0.23279676 -0.50371307 0.50231862 65280
-0.2061986 -0.50371307 0.50231862 65280
-0.20265219 -0.50371307 0.50231862 65280
-0.10601219 -0.50371307 0.50231862 65280
-0.10335237 -0.50371307 0.50231862 65280
-0.38610223 -0.50121766 0.50704318 65280
-0.38260302 -0.49818361 0.50639135 65280
-0.3776457 -0.49798721 0.50649571 65280
-0.37272322 -0.49842674 0.5066396 65280
-0.36751273 -0.49858931 0.50680488 65280
-0.36210829 -0.49837863 0.50628763 65280
-0.35744643 -0.49896604 0.50597531 65280
-0.35300693 -0.49896607 0.50597531 65280
-0.34742418 -0.49860027 0.50560349 65280
-0.34210062 -0.49860024 0.50560349 65280
-0.33771178 -0.49849427 0.50509351 65280
-0.33262235 -0.498496 0.50580055 65280
-0.32804361 -0.49816957 0.50668198 65280
-0.32292303 -0.49834517 0.50655711 65280
-0.31759626 -0.49819547 0.50610185 65280
-0.31347787 -0.49901614 0.504816 65280
-0.37199387 -0.49431917 0.50731343 65280
-0.3675608 -0.49431917 0.50731343 65280
-0.36490098 -0.49431917 0.50731343 65280
-0.32766354 -0.49431917 0.50731343 65280
-0.32234395 -0.49431917 0.50731343 65280
-0.3187975 -0.49431917 0.50731343 65280
0.19938196 -0.55913019 0.48134708 65280
0.20073582 -0.55712116 0.4807165 65280
0.22854733 -0.55811387 0.48047182 65280
0.20289275 -0.55457413 0.48348647 65280
0.20580196 -0.55157757 0.48253155 65280
0.22863029 -0.55436599 0.48274779 65280
0.23215722 -0.55400521 0.48577094 65280
0.2043103 -0.55135226 0.486049 65280
0.20722117 -0.54942739 0.48565683 65280
0.22846442 -0.54922378 0.48491558 65280
0.23198876 -0.55043328 0.48710394 65280
0.20887895 -0.54595828 0.48843169 65280
0.21212235 -0.54400986 0.48746142 65280
0.22864303 -0.54480129 0.48726708 65280
0.23218521 -0.54547834 0.48888904 65280
0.17735849 -0.54052103 0.49294063 65280
0.18223272 -0.54072148 0.49255091 65280
0.18719538 -0.54118347 0.49239969 65280
0.19227093 -0.54115558 0.49260324 65280
0.19802029 -0.54052097 0.49294057 65280
0.20251201 -0.54052103 0.49294063 65280
0.20726039 -0.54165411 0.49233821 65280
0.21216452 -0.54077017 0.49065629 65280
0.21564209 -0.53921974 0.49023485 65280
0.2280852 -0.54053712 0.48885483 65280
0.23243566 -0.54066533 0.49078751 65280
0.23684733 -0.54064453 0.4914189 65280
