# .PCD v0.7 - Point Cloud Data file format
VERSION 0.7
FIELDS x y z rgba
SIZE 4 4 4 4
TYPE F F F U
COUNT 1 1 1 1
WIDTH 1181
HEIGHT 1
VIEWPOINT 0 0 0 1 0 0 0
POINTS 1181
DATA ascii
0.18740395 -0.376019 0.49744722 65280
0.19299865 -0.37596786 0.49737996 65280
0.19772165 -0.37528521 0.49812049 65280
0.20226474 -0.37607318 0.49883419 65280
0.2073105 -0.37620181 0.49876571 65280
0.2123401 -0.37539497 0.49793634 65280
0.21666515 -0.3759467 0.49708921 65280
0.22085464 -0.37626839 0.49646512 65280
0.23368433 -0.37626839 0.49646512 65280
0.23782288 -0.37576434 0.49711072 65280
0.24276763 -0.37525949 0.4977566 65280
0.24741705 -0.37548742 0.49772987 65280
0.25233203 -0.37586629 0.49724519 65280
0.25721583 -0.37667626 0.49700332 65280
0.26255119 -0.37626839 0.49646512 65280
0.26816416 -0.37626839 0.49646512 65280
0.27297533 -0.37626839 0.49646512 65280
0.27837819 -0.37606907 0.49725068 65280
0.28314272 -0.37548742 0.49772987 65280
0.28772029 -0.37525952 0.49775666 65280
-0.33539551 -0.37016445 0.50424093 65280
-0.33378139 -0.37016445 0.50424093 65280
-0.2756722 -0.37016445 0.50424093 65280
-0.27212107 -0.37073451 0.50393784 65280
-0.26727867 -0.37215972 0.50318003 65280
-0.26261711 -0.37210211 0.50283313 65280
-0.25791666 -0.37230223 0.50310427 65280
-0.2530742 -0.37230223 0.50310427 65280
-0.24742469 -0.37230223 0.50310427 65280
-0.24209802 -0.37215972 0.50318003 65280
-0.23693275 -0.37158963 0.50348318 65280
-0.23241314 -0.37215972 0.50318003 65280
-0.22712596 -0.37210211 0.50283313 65280
-0.22265592 -0.37203968 0.50301737 65280
-0.21756303 -0.37158963 0.50348318 65280
-0.21239778 -0.37101957 0.50378627 65280
-0.20828171 -0.37123334 0.5036726 65280
-0.20263222 -0.37194595 0.50329369 65280
-0.19813995 -0.37220216 0.50296861 65280
-0.19267431 -0.37274778 0.50236398 65280
-0.18788894 -0.37200898 0.5017029 65280
-0.18287566 -0.37140843 0.50055939 65280
-0.17779613 -0.370873 0.49983734 65280
-0.17262861 -0.37150156 0.50044125 65280
-0.16743912 -0.3719705 0.50158185 65280
-0.16247803 -0.37254715 0.50209314 65280
-0.1575567 -0.37234709 0.50182199 65280
-0.15250355 -0.37181163 0.50109994 65280
-0.14763673 -0.37242067 0.50058746 65280
-0.14445832 -0.37323022 0.50034571 65280
0.13906527 -0.37202039 0.4987238 65280
0.14364997 -0.37212011 0.49952027 65280
0.14804514 -0.37242368 0.49926445 65280
0.15269683 -0.37202039 0.4987238 65280
0.15590425 -0.37202039 0.4987238 65280
0.17354509 -0.37202039 0.4987238 65280
0.17995995 -0.37202039 0.4987238 65280
0.1992045 -0.37202039 0.4987238 65280
0.20263223 -0.37242368 0.49926445 65280
0.20733452 -0.37222207 0.49899417 65280
-0.34701735 -0.36617386 0.5063628 65280
-0.34169391 -0.36714512 0.50552279 65280
-0.33730486 -0.36705104 0.50539297 65280
-0.33227485 -0.36693504 0.50550503 65280
-0.32703131 -0.36698514 0.50530219 65280
-0.32213506 -0.36691919 0.50521141 65280
-0.31746888 -0.36711699 0.50548381 65280
-0.31254485 -0.36630589 0.50572634 65280
-0.30787215 -0.36650288 0.50599897 65280
-0.30311263 -0.36660144 0.5061354 65280
-0.29780903 -0.36670321 0.50608128 65280
-0.29230228 -0.36685708 0.50551409 65280
-0.28754517 -0.36772996 0.50496912 65280
-0.28204536 -0.36729974 0.50505626 65280
-0.2769877 -0.36691919 0.50521141 65280
-0.27223808 -0.36745572 0.50432217 65280
-0.26751363 -0.36787957 0.50381994 65280
-0.26244551 -0.36754936 0.50336629 65280
-0.25744572 -0.36746678 0.50352353 65280
-0.25252908 -0.36794573 0.50391054 65280
-0.24769709 -0.36794573 0.50391054 65280
-0.24286506 -0.36794573 0.50391054 65280
-0.23781925 -0.36761558 0.50345695 65280
-0.23258957 -0.36763197 0.50320917 65280
-0.22742139 -0.36728439 0.50300384 65280
-0.22245359 -0.3674897 0.50328481 65280
-0.2175127 -0.36774796 0.50363827 65280
-0.2127652 -0.36723909 0.50395602 65280
-0.20713134 -0.36759478 0.50376678 65280
-0.20245293 -0.36768177 0.50354761 65280
-0.19762354 -0.3676815 0.50354767 65280
-0.19269174 -0.36748293 0.50327581 65280
-0.18766281 -0.36708504 0.50273234 65280
-0.18286605 -0.36690605 0.50215113 65280
-0.17786847 -0.3665334 0.50164127 65280
-0.17125317 -0.36706442 0.50135893 65280
-0.16746986 -0.36685306 0.5024153 65280
-0.16186482 -0.36688623 0.50246054 65280
-0.15699019 -0.36746269 0.50190222 65280
-0.15361233 -0.3677724 0.50098252 65280
-0.34743425 -0.36212763 0.50675243 65280
-0.34217215 -0.36167124 0.50611424 65280
-0.3374466 -0.36193657 0.50570357 65280
-0.33262426 -0.36193657 0.50570357 65280
-0.32761046 -0.36228251 0.50560051 65280
-0.32231447 -0.36225241 0.50589961 65280
-0.31736553 -0.36180821 0.50630569 65280
-0.31237817 -0.36193216 0.50647891 65280
-0.30755109 -0.36193216 0.50647885 65280
-0.30269939 -0.36201757 0.50687391 65280
-0.29741418 -0.36199707 0.50657016 65280
-0.2924445 -0.36175036 0.50588346 65280
-0.28718674 -0.36269879 0.50481284 65280
-0.2824184 -0.36276391 0.50490391 65280
-0.27769858 -0.36218438 0.5054639 65280
-0.27269509 -0.36274138 0.50521493 65280
-0.2680026 -0.36272794 0.50451422 65280
-0.26307148 -0.36307621 0.50370604 65280
-0.25705761 -0.36347765 0.50371909 65280
-0.25220025 -0.36259362 0.50436527 65280
-0.24718904 -0.36232081 0.50456077 65280
-0.24220975 -0.36340642 0.50443661 65280
-0.23769538 -0.36361378 0.50404316 65280
-0.23219426 -0.36352444 0.50324118 65280
-0.22818497 -0.36352444 0.50324118 65280
-0.22096826 -0.36352444 0.50324118 65280
-0.21811496 -0.36411557 0.50405949 65280
-0.21237785 -0.36344653 0.50403774 65280
-0.20769858 -0.36331269 0.50403339 65280
-0.20156881 -0.36361378 0.50404316 65280
-0.19712561 -0.36321011 0.50416338 65280
-0.19209547 -0.36293459 0.50436389 65280
-0.1876068 -0.36268187 0.50401282 65280
-0.18087545 -0.36352444 0.50324118 65280
-0.17927173 -0.36281642 0.50361764 65280
-0.17125317 -0.36352444 0.50324118 65280
-0.16770354 -0.36317092 0.50391465 65280
-0.16243276 -0.36317042 0.50342941 65280
-0.34662059 -0.35844237 0.50707597 65280
-0.34204859 -0.35786045 0.50625277 65280
-0.33763838 -0.35821444 0.50606453 65280
-0.33242631 -0.35892242 0.50568813 65280
-0.32681334 -0.35927644 0.5054999 65280
-0.32200217 -0.35880443 0.50575083 65280
-0.317534 -0.35824835 0.50680161 65280
-0.31288788 -0.35844237 0.50707597 65280
-0.30790305 -0.35824835 0.50680161 65280
-0.30244678 -0.35844237 0.50707597 65280
-0.29762781 -0.35844237 0.50707597 65280
-0.29393721 -0.35786045 0.50625277 65280
-0.28992793 -0.35927644 0.5054999 65280
-0.27709821 -0.35927644 0.5054999 65280
-0.2722871 -0.35927644 0.5054999 65280
0.19235659 -0.39901534 0.49456349 65280
0.06218205 -0.39470521 0.49685523 65280
0.0670636 -0.39470521 0.49685523 65280
0.071945138 -0.39470521 0.49685523 65280
0.076826692 -0.39470521 0.49685523 65280
0.080081053 -0.39470521 0.49685523 65280
0.093098514 -0.39470521 0.49685523 65280
0.11913342 -0.39470521 0.49685523 65280
0.1207606 -0.39470521 0.49685523 65280
0.1565586 -0.39470521 0.49685523 65280
0.16469452 -0.39470521 0.49685523 65280
0.16794889 -0.39470521 0.49685523 65280
0.17283042 -0.39470521 0.49685523 65280
0.1776166 -0.39521271 0.49620789 65280
0.18270056 -0.39546034 0.49596837 65280
0.18707129 -0.39618999 0.49541864 65280
0.192367 -0.39592528 0.49549866 65280
0.1971328 -0.39593107 0.49582595 65280
0.20211971 -0.39614192 0.49609131 65280
0.20719345 -0.39574528 0.49584922 65280
0.21252505 -0.39582518 0.4956935 65280
0.21740326 -0.39582536 0.49569339 65280
0.2226548 -0.39525509 0.49607751 65280
0.22797179 -0.3951073 0.49607518 65280
0.23256186 -0.39531422 0.4960784 65280
0.23766266 -0.39571869 0.49556127 65280
0.24241014 -0.39550707 0.49529633 65280
0.24784693 -0.39531425 0.4960784 65280
0.25235996 -0.3951073 0.49607518 65280
0.25730678 -0.39521271 0.49620789 65280
0.26232544 -0.39542353 0.49647328 65280
0.26720694 -0.39542353 0.49647328 65280
0.27242774 -0.3951402 0.49630037 65280
0.2768591 -0.39526543 0.49627423 65280
0.28185162 -0.39470521 0.49685523 65280
0.28743055 -0.39454705 0.49665621 65280
0.29238704 -0.3947624 0.49606973 65280
-0.15716206 -0.39096975 0.4988414 65280
-0.15271765 -0.39141756 0.4981786 65280
-0.14813121 -0.39075422 0.49895599 65280
-0.14447004 -0.39039505 0.49914697 65280
-0.13714772 -0.39039505 0.49914697 65280
-0.13307977 -0.39039505 0.49914697 65280
-0.1298254 -0.39039505 0.49914697 65280
-0.12216689 -0.39018649 0.49888039 65280
-0.11733946 -0.3894566 0.49794719 65280
-0.11318964 -0.38914379 0.49754721 65280
-0.1076843 -0.38976941 0.4983471 65280
-0.1029769 -0.39039505 0.49914697 65280
-0.087472796 -0.39018649 0.49888039 65280
-0.08399424 -0.38914379 0.49754721 65280
-0.076880991 -0.39151776 0.49798369 65280
-0.074143052 -0.38994795 0.495987 65280
-0.066046253 -0.38994795 0.495987 65280
-0.063718349 -0.39057592 0.49678573 65280
-0.059760664 -0.38976941 0.4983471 65280
-0.032194495 -0.39039505 0.49914697 65280
0.012553007 -0.39039505 0.49914697 65280
0.018561359 -0.39071947 0.49852148 65280
0.023111155 -0.3908006 0.4983651 65280
0.028011234 -0.39039505 0.49914697 65280
0.032892779 -0.39039505 0.49914697 65280
0.037774324 -0.39039505 0.49914697 65280
0.042655874 -0.39039505 0.49914697 65280
0.047831856 -0.3907195 0.49852148 65280
0.052376959 -0.3908006 0.4983651 65280
0.057218593 -0.3912749 0.49767253 65280
0.061864931 -0.39170438 0.49748003 65280
0.067158543 -0.39138427 0.49748844 65280
0.071817622 -0.39113486 0.49749529 65280
0.077316232 -0.39118844 0.49779856 65280
0.082642406 -0.39197868 0.49759713 65280
0.088122278 -0.39213151 0.49746868 65280
0.092800118 -0.39129311 0.49640438 65280
0.097797744 -0.39181674 0.49706966 65280
0.10272423 -0.39107019 0.49784422 65280
0.10720685 -0.39028499 0.49835607 65280
0.11253444 -0.3908006 0.4983651 65280
0.11737173 -0.39138424 0.49781209 65280
0.12241893 -0.3914631 0.49758816 65280
0.12696427 -0.39133906 0.49807879 65280
0.13204499 -0.3908006 0.4983651 65280
0.13692261 -0.3908006 0.4983651 65280
0.14224817 -0.39065331 0.49836254 65280
0.14772172 -0.39125431 0.49793512 65280
0.15278199 -0.39147425 0.49766716 65280
0.15793228 -0.3912054 0.49758363 65280
0.16260295 -0.39138427 0.49748844 65280
0.16758959 -0.39171174 0.4969368 65280
0.17241497 -0.39160705 0.4968037 65280
0.17728478 -0.39160705 0.4968037 65280
0.18242915 -0.39109996 0.49634525 65280
0.18749608 -0.39143598 0.49562061 65280
0.19243449 -0.39141452 0.49591511 65280
0.19796729 -0.39098886 0.4967927 65280
0.2020795 -0.39132726 0.49709406 65280
0.20754261 -0.39148462 0.49646434 65280
0.21265459 -0.39097801 0.49600562 65280
0.21751656 -0.39097798 0.49600562 65280
0.22237857 -0.39097801 0.49600562 65280
0.22724055 -0.39097798 0.49600562 65280
0.23247573 -0.3907637 0.49541175 65280
0.23712611 -0.39181083 0.49467292 65280
0.24244207 -0.39209306 0.49484643 65280
0.2475318 -0.39079052 0.49521545 65280
0.25317115 -0.39097798 0.49600562 65280
0.25775027 -0.39089802 0.49616137 65280
0.26250583 -0.39160705 0.4968037 65280
0.26737562 -0.39160705 0.4968037 65280
0.27256185 -0.39166468 0.49669218 65280
0.27777916 -0.39139777 0.49653745 65280
0.28279737 -0.39160705 0.4968037 65280
0.28743523 -0.39129275 0.49640459 65280
0.29125673 -0.39097798 0.49600562 65280
-0.25105047 -0.38608491 0.50143874 65280
-0.24779609 -0.38608491 0.50143874 65280
-0.18596318 -0.38608491 0.50143874 65280
-0.18189521 -0.38608488 0.50143874 65280
-0.17864087 -0.38608491 0.50143874 65280
-0.16128425 -0.38656381 0.50118411 65280
-0.15726405 -0.38697013 0.49996141 65280
-0.15227988 -0.38669443 0.49960464 65280
-0.14740875 -0.38669437 0.49960458 65280
-0.14261395 -0.38690212 0.49987164 65280
-0.13781434 -0.38782597 0.49975792 65280
-0.13272433 -0.38720375 0.4989562 65280
-0.12775351 -0.38689327 0.49855506 65280
-0.12292317 -0.3877117 0.49830866 65280
-0.11929268 -0.38646498 0.49670631 65280
-0.097583473 -0.38693255 0.49730721 65280
-0.092765674 -0.38708836 0.49750748 65280
-0.082239844 -0.38851815 0.49674726 65280
-0.061188176 -0.38851815 0.49674726 65280
-0.05722918 -0.38771164 0.4983086 65280
-0.052904297 -0.38751417 0.49909309 65280
-0.047441736 -0.3858138 0.49846831 65280
-0.041449931 -0.38694921 0.4992803 65280
-0.036810007 -0.38757792 0.49999774 65280
-0.032177296 -0.38731536 0.50040698 65280
-0.027298357 -0.38731536 0.50040698 65280
-0.022413427 -0.38649392 0.500655 65280
-0.017851751 -0.38645193 0.50033748 65280
-0.012331217 -0.38657567 0.50049824 65280
-0.0077742883 -0.38618451 0.50025314 65280
-0.0029009061 -0.38628766 0.50038713 65280
0.0017709475 -0.38731393 0.50007743 65280
0.0068523749 -0.38792947 0.4998917 65280
0.012519176 -0.38722968 0.49898967 65280
0.018174166 -0.38668549 0.49828798 65280
0.023018489 -0.38637456 0.49788702 65280
0.027921455 -0.38699681 0.49868879 65280
0.032787357 -0.38699678 0.49868879 65280
0.037633076 -0.3867898 0.49842131 65280
0.042461753 -0.38647848 0.49802053 65280
0.047333401 -0.38729611 0.49777454 65280
0.052152514 -0.3862707 0.49775347 65280
0.056597881 -0.38657564 0.49749696 65280
0.061866928 -0.38722318 0.4972471 65280
0.067634702 -0.38670665 0.49738687 65280
0.073277563 -0.3866851 0.49828821 65280
0.077802591 -0.38676572 0.49813202 65280
0.082901388 -0.38764745 0.49692711 65280
0.086912483 -0.38820532 0.49634728 65280
0.097405188 -0.38810107 0.496214 65280
0.10236707 -0.38756496 0.49725407 65280
0.10719681 -0.3862707 0.49775347 65280
0.11202262 -0.38616681 0.49761993 65280
0.11783604 -0.38712502 0.497035 65280
0.12269099 -0.386554 0.49733862 65280
0.12753557 -0.38658118 0.49815467 65280
0.13246684 -0.38678899 0.49842167 65280
0.13736629 -0.38689288 0.49855524 65280
0.14255118 -0.38692081 0.49840555 65280
0.14774834 -0.38647732 0.49802113 65280
0.15252583 -0.38626999 0.49775392 65280
0.15729852 -0.38606292 0.49748641 65280
0.1624027 -0.38641366 0.49738079 65280
0.16700685 -0.38749158 0.49672678 65280
0.17266941 -0.38749158 0.49672678 65280
0.1771245 -0.38782156 0.49689108 65280
0.18266565 -0.38704896 0.49721962 65280
0.18799107 -0.38738734 0.49659351 65280
0.19310451 -0.38714099 0.49683231 65280
0.19758733 -0.38667673 0.49730164 65280
0.20296976 -0.38690963 0.49760252 65280
0.20758797 -0.38701937 0.4974184 65280
0.21195431 -0.38757181 0.49657097 65280
0.21699156 -0.38789248 0.4959473 65280
0.22184181 -0.38789248 0.4959473 65280
0.22750045 -0.38789248 0.4959473 65280
0.25336847 -0.38789248 0.4959473 65280
0.25768802 -0.3883096 0.49648058 65280
0.26268363 -0.38851815 0.49674726 65280
0.26783818 -0.3880049 0.49673703 65280
0.27188593 -0.3880049 0.49673703 65280
0.27725789 -0.38851815 0.49674726 65280
0.28281075 -0.3880049 0.49673703 65280
0.28755066 -0.38820532 0.49634728 65280
0.29136214 -0.38789248 0.4959473 65280
-0.27708536 -0.38177472 0.50373048 65280
-0.27301741 -0.38249311 0.50334853 65280
-0.26854268 -0.38213393 0.5035395 65280
-0.26325431 -0.38177472 0.50373048 65280
-0.25715175 -0.38271356 0.50306952 65280
-0.25247484 -0.38290527 0.50256312 65280
-0.24766888 -0.38259891 0.50215977 65280
-0.24270116 -0.38225621 0.50259364 65280
-0.23702933 -0.38218722 0.50294495 65280
-0.23227537 -0.38239115 0.50321394 65280
-0.22704953 -0.38213393 0.5035395 65280
-0.22257479 -0.38249311 0.50334853 65280
-0.21769322 -0.38249311 0.50334853 65280
-0.21264116 -0.38218722 0.50294495 65280
-0.20776351 -0.38218722 0.50294495 65280
-0.20330842 -0.38222706 0.50326341 65280
-0.19768152 -0.38198099 0.50333768 65280
-0.19236654 -0.38241947 0.50225514 65280
-0.18780009 -0.38222307 0.50122702 65280
-0.18293421 -0.38270044 0.50097317 65280
-0.1777257 -0.38306642 0.50126398 65280
-0.17281441 -0.38216707 0.50188601 65280
-0.16728517 -0.38229033 0.50274849 65280
-0.16231191 -0.38277781 0.50206465 65280
-0.15723117 -0.38165697 0.50118834 65280
-0.15192692 -0.38150609 0.5007273 65280
-0.14709312 -0.3815746 0.50081682 65280
-0.14238819 -0.38177794 0.50033104 65280
-0.13722478 -0.38330835 0.49913982 65280
-0.13303506 -0.38360998 0.49822435 65280
-0.036897793 -0.38422874 0.49902797 65280
-0.015846126 -0.38422874 0.49902797 65280
-0.014226767 -0.38422874 0.49902797 65280
-0.0012698463 -0.38218248 0.49898338 65280
0.0023692877 -0.38269401 0.4989945 65280
0.0068248995 -0.38422874 0.49902797 65280
0.010863891 -0.38391936 0.49862617 65280
0.1329205 -0.38360998 0.49822435 65280
0.13828669 -0.38356248 0.49881592 65280
0.14233118 -0.38356248 0.49881592 65280
0.14747126 -0.38360998 0.49822435 65280
0.15070476 -0.38360998 0.49822435 65280
0.18142304 -0.38360998 0.49822435 65280
0.20324919 -0.38360998 0.49822435 65280
0.20567431 -0.38360998 0.49822435 65280
-0.35112214 -0.37746459 0.50602221 65280
-0.34746099 -0.37782377 0.50583124 65280
-0.34271142 -0.37788051 0.50523484 65280
-0.33783379 -0.37788051 0.50523484 65280
-0.33295617 -0.37788051 0.50523484 65280
-0.3276512 -0.37802634 0.50523818 65280
-0.32238725 -0.37788051 0.50523484 65280
-0.31719741 -0.37782109 0.50534731 65280
-0.31247658 -0.37782377 0.50583124 65280
-0.30710661 -0.37808216 0.50550508 65280
-0.30206442 -0.37788051 0.50523484 65280
-0.29765472 -0.3779183 0.5055545 65280
-0.29254356 -0.37746459 0.50602221 65280
-0.28725523 -0.37782377 0.50583124 65280
-0.28228948 -0.37814486 0.50501341 65280
-0.27745423 -0.37829512 0.50444806 65280
-0.27214238 -0.37768844 0.50363815 65280
-0.26718128 -0.37755349 0.5034582 65280
-0.26231623 -0.37755376 0.50345802 65280
-0.25749895 -0.377621 0.5035482 65280
-0.25236309 -0.37721562 0.5030086 65280
-0.24728166 -0.37687802 0.50255889 65280
-0.24230905 -0.37734506 0.50291467 65280
-0.23753953 -0.37768844 0.50363815 65280
-0.23267365 -0.37768844 0.50363815 65280
-0.22753748 -0.37768829 0.50363821 65280
-0.22240117 -0.37768844 0.50363815 65280
-0.21728449 -0.37748459 0.50363326 65280
-0.21212961 -0.37768844 0.50363815 65280
-0.20726371 -0.37768844 0.50363815 65280
-0.20228933 -0.37748608 0.50336826 65280
-0.19735605 -0.37735111 0.50318825 65280
-0.19261816 -0.37781614 0.50221115 65280
-0.18719624 -0.37885162 0.50075442 65280
-0.17668736 -0.37932745 0.50050139 65280
-0.17102872 -0.37789994 0.5012604 65280
-0.16763426 -0.3776947 0.50204921 65280
-0.16307637 -0.37749097 0.5020442 65280
-0.15781868 -0.37784785 0.50185442 65280
-0.15405284 -0.37789994 0.5012604 65280
-0.14596908 -0.37789994 0.5012604 65280
-0.14111882 -0.37932745 0.50050139 65280
-0.35175982 -0.37451878 0.50690901 65280
-0.34754157 -0.37365842 0.50628436 65280
-0.34249115 -0.37316662 0.50561774 65280
-0.33782884 -0.37312022 0.50521761 65280
-0.33221996 -0.37301713 0.50511521 65280
-0.32730198 -0.3727918 0.50510913 65280
-0.32222804 -0.37264866 0.50518519 65280
-0.31733024 -0.37312508 0.50556111 65280
-0.31269157 -0.37339211 0.5059225 65280
-0.30755019 -0.37359545 0.50592768 65280
-0.3024182 -0.37339211 0.5059225 65280
-0.29749876 -0.37332541 0.50583214 65280
-0.29263428 -0.37332538 0.50583214 65280
-0.28761476 -0.37312555 0.50556087 65280
-0.28255036 -0.37285876 0.50519937 65280
-0.27805391 -0.37261939 0.50487721 65280
-0.27339891 -0.37341118 0.50393027 65280
-0.26965055 -0.37361744 0.50353748 65280
-0.24054901 -0.37361744 0.50353748 65280
-0.23731554 -0.37361744 0.50353748 65280
-0.23084851 -0.37361744 0.50353748 65280
-0.22114801 -0.37361744 0.50353748 65280
-0.21791451 -0.37361744 0.50353748 65280
-0.21306425 -0.37361744 0.50353748 65280
-0.208214 -0.37361744 0.50353748 65280
-0.20417212 -0.37361744 0.50353748 65280
-0.35105342 -0.36921576 0.50701052 65280
-0.34780249 -0.36900222 0.50644451 65280
-0.34402111 -0.36933491 0.50581455 65280
-0.31274518 -0.36963278 0.50622249 65280
-0.30699992 -0.36953351 0.50608653 65280
-0.30231115 -0.36973205 0.50635844 65280
-0.29713532 -0.36933491 0.50581455 65280
-0.2939018 -0.36933491 0.50581455 65280
0.18897726 -0.40655726 0.49621624 65280
0.19195203 -0.40591091 0.49542737 65280
0.19686489 -0.40591091 0.49542737 65280
0.20177771 -0.40591091 0.49542737 65280
0.20750937 -0.40591091 0.49542737 65280
0.21324103 -0.40591091 0.49542737 65280
0.21768111 -0.40655726 0.49621624 65280
0.27262846 -0.40655726 0.49621624 65280
0.27672905 -0.40655726 0.49621624 65280
0.057728168 -0.40199941 0.4982622 65280
0.062292475 -0.40240818 0.49774271 65280
0.067493498 -0.40157312 0.49773377 65280
0.072406337 -0.40157312 0.49773377 65280
0.077319175 -0.40157312 0.49773377 65280
0.082297474 -0.40261695 0.49774501 65280
0.087144852 -0.40157312 0.49773377 65280
0.092504382 -0.40209502 0.4977394 65280
0.09707433 -0.40199941 0.4982622 65280
0.10122549 -0.40221259 0.49852633 65280
0.1184478 -0.40221259 0.49852633 65280
0.12172823 -0.40221259 0.49852633 65280
0.127469 -0.40221259 0.49852633 65280
0.14961198 -0.40221259 0.49852633 65280
0.1512522 -0.40221259 0.49852633 65280
0.15815975 -0.40241474 0.49813566 65280
0.16251771 -0.40240306 0.49748123 65280
0.16750756 -0.40233254 0.49684459 65280
0.17202741 -0.40267962 0.49686235 65280
0.17713292 -0.40242392 0.49695787 65280
0.18250997 -0.40234351 0.49669501 65280
0.18746692 -0.4021866 0.4959352 65280
0.19254927 -0.40265152 0.49505705 65280
0.19787033 -0.40173706 0.49538141 65280
0.20276752 -0.40173706 0.49538141 65280
0.20781273 -0.4020223 0.49573317 65280
0.21263735 -0.4018797 0.49555731 65280
0.21769126 -0.40216517 0.49590886 65280
0.2226847 -0.4025192 0.49666452 65280
0.22804089 -0.40240344 0.49748102 65280
0.23301555 -0.4025104 0.49761292 65280
0.23774207 -0.4021903 0.49721688 65280
0.24271804 -0.40229723 0.49734879 65280
0.24756515 -0.4021903 0.49721688 65280
0.25247583 -0.40218991 0.49721706 65280
0.25725159 -0.40197638 0.49695307 65280
0.26277456 -0.40248564 0.49687108 65280
0.26758963 -0.40266433 0.49652442 65280
0.27235365 -0.40245014 0.4962607 65280
0.277408 -0.40266407 0.49652457 65280
0.28213298 -0.40245652 0.49754721 65280
0.28723904 -0.40199941 0.49826214 65280
0.29237267 -0.40209502 0.4977394 65280
0.29527828 -0.40323374 0.49722829 65280
-0.16190171 -0.39827514 0.50005358 65280
-0.1574896 -0.39820689 0.49867424 65280
-0.15261866 -0.39801326 0.49894708 65280
-0.1474081 -0.39794117 0.49989143 65280
-0.14234722 -0.39786786 0.50083643 65280
-0.12259957 -0.39765704 0.50057107 65280
-0.11774391 -0.39786786 0.50083643 65280
-0.11282325 -0.39786786 0.50083643 65280
-0.098061271 -0.39786789 0.50083643 65280
-0.088219948 -0.39786789 0.50083643 65280
-0.040653564 -0.39786789 0.50083643 65280
-0.037333947 -0.39816993 0.49992079 65280
-0.032400869 -0.39795831 0.49965581 65280
-0.027509918 -0.3982757 0.50005329 65280
-0.022598289 -0.39765704 0.50057101 65280
-0.018510591 -0.39786789 0.50083643 65280
-0.0012882795 -0.39786789 0.50083643 65280
0.0023184165 -0.39819416 0.50020993 65280
0.0069073266 -0.3982757 0.50005329 65280
0.012026425 -0.39873919 0.49966535 65280
0.017051844 -0.39847481 0.49926791 65280
0.022372 -0.39859223 0.49944463 65280
0.028206626 -0.39744619 0.50030559 65280
0.033137903 -0.39765704 0.50057101 65280
0.038057696 -0.39765704 0.50057107 65280
0.043356452 -0.39775553 0.50004673 65280
0.047867104 -0.39817032 0.49992064 65280
0.052938681 -0.39834356 0.49916786 65280
0.057524104 -0.39769554 0.49803376 65280
0.062363878 -0.39802682 0.49716547 65280
0.067279413 -0.39813268 0.49729803 65280
0.072233386 -0.39845079 0.49769503 65280
0.077134497 -0.39845085 0.49769509 65280
0.082141116 -0.39743361 0.49738646 65280
0.0871794 -0.39720562 0.49767765 65280
0.091837801 -0.39845085 0.49769509 65280
0.097508267 -0.39754039 0.49783939 65280
0.10253765 -0.39804822 0.49847549 65280
0.10732259 -0.39861202 0.4991824 65280
0.11286923 -0.39808318 0.49916467 65280
0.11756657 -0.39851013 0.49848157 65280
0.12308185 -0.39791149 0.49798188 65280
0.12779114 -0.39776632 0.49812192 65280
0.13285738 -0.39825988 0.49874049 65280
0.13778855 -0.39833036 0.49882877 65280
0.14262152 -0.39811853 0.49856395 65280
0.14747484 -0.39797747 0.49838728 65280
0.15240628 -0.39804798 0.49847561 65280
0.1572479 -0.39806989 0.49818078 65280
0.16195758 -0.39741313 0.49768054 65280
0.16720584 -0.39775723 0.49701217 65280
0.17242968 -0.39781484 0.49690065 65280
0.17746535 -0.39885294 0.49691501 65280
0.18207122 -0.39821574 0.49612117 65280
0.22212034 -0.39842814 0.49638584 65280
0.2272535 -0.39885294 0.49691501 65280
0.23215067 -0.39885294 0.49691501 65280
0.23757809 -0.39837503 0.49631959 65280
0.24318834 -0.39821574 0.49612117 65280
0.24746129 -0.39853433 0.49651808 65280
0.25173944 -0.39885294 0.49691501 65280
0.25745285 -0.39885294 0.49691501 65280
0.26316622 -0.39885294 0.49691501 65280
0.2680634 -0.39885294 0.49691501 65280
0.27252457 -0.39821574 0.49612117 65280
0.27815428 -0.39833391 0.49690786 65280
0.28275585 -0.39813304 0.49729776 65280
0.28788194 -0.39845085 0.49769509 65280
0.29203647 -0.39802247 0.49690357 65280
-0.28012571 -0.39352322 0.50314653 65280
-0.27684528 -0.39352322 0.50314653 65280
-0.27274472 -0.39352322 0.50314653 65280
-0.26044306 -0.39352322 0.50314653 65280
-0.25675377 -0.39289758 0.50234663 65280
-0.25184095 -0.39289758 0.50234663 65280
-0.24794352 -0.39321035 0.50274658 65280
-0.23173921 -0.39352322 0.50314653 65280
-0.22927889 -0.39352322 0.50314653 65280
-0.21205658 -0.39352322 0.50314653 65280
-0.20959625 -0.39352322 0.50314653 65280
-0.19237393 -0.39352322 0.50314653 65280
-0.18797405 -0.39289758 0.50234663 65280
-0.18253261 -0.39352322 0.50314653 65280
-0.17023095 -0.39352322 0.50314653 65280
-0.16641065 -0.39417991 0.50189131 65280
-0.16257213 -0.3932409 0.50054616 65280
-0.15821108 -0.39369649 0.49880722 65280
-0.15122072 -0.3938987 0.4984166 65280
-0.1473418 -0.39394423 0.49933621 65280
-0.14228728 -0.3934589 0.50016057 65280
-0.13739282 -0.39395025 0.50033075 65280
-0.13208456 -0.39443856 0.50039476 65280
-0.12728187 -0.39358407 0.50028282 65280
-0.12239593 -0.39377052 0.50010276 65280
-0.11736953 -0.39443856 0.50039476 65280
-0.11249397 -0.3945432 0.50052786 65280
-0.10767386 -0.39485717 0.50092721 65280
-0.10246807 -0.39430872 0.50078726 65280
-0.097749189 -0.39371735 0.5007782 65280
-0.092877656 -0.39385688 0.5009557 65280
-0.088102631 -0.39517152 0.50132632 65280
-0.0831898 -0.3951723 0.50132591 65280
-0.078210749 -0.39509889 0.50079858 65280
-0.073264197 -0.39536929 0.5002774 65280
-0.06750188 -0.39515921 0.50001162 65280
-0.061472069 -0.39470917 0.50047737 65280
-0.056963496 -0.3934764 0.5020389 65280
-0.051853422 -0.39419982 0.50213957 65280
-0.047148012 -0.39441457 0.50166589 65280
-0.042182297 -0.39392665 0.50104439 65280
-0.037215259 -0.39329773 0.50024629 65280
-0.032284785 -0.39311138 0.49968463 65280
-0.027399911 -0.39308864 0.49997985 65280
-0.022539249 -0.39371711 0.50077832 65280
-0.017634233 -0.39371711 0.50077838 65280
-0.012733441 -0.39385667 0.50095588 65280
-0.0078258794 -0.39378715 0.50086701 65280
-0.0029191885 -0.39371708 0.50077832 65280
0.0019831355 -0.39329821 0.50024593 65280
0.0068798508 -0.39308918 0.49997965 65280
0.011776174 -0.39380866 0.49959701 65280
0.016937856 -0.39383921 0.49920329 65280
0.023203826 -0.39452899 0.49921408 65280
0.028109366 -0.39391369 0.49972993 65280
0.033024564 -0.39412341 0.49999604 65280
0.03794628 -0.39433348 0.50026184 65280
0.042826768 -0.39412338 0.49999598 65280
0.047281682 -0.39416921 0.49940538 65280
0.052558105 -0.39431888 0.49894825 65280
0.10384133 -0.3938987 0.4984166 65280
0.10834537 -0.39370126 0.49920118 65280
0.11292464 -0.39431888 0.49894825 65280
0.11606476 -0.3938987 0.4984166 65280
0.12910308 -0.3938987 0.4984166 65280
0.13236266 -0.3938987 0.4984166 65280
0.13725202 -0.3938987 0.4984166 65280
0.14214139 -0.3938987 0.4984166 65280
0.14540097 -0.3938987 0.4984166 65280
-0.30800945 -0.38917851 0.50545669 65280
-0.30472901 -0.38917851 0.50545669 65280
-0.28616259 -0.39011002 0.50467825 65280
-0.28235933 -0.38962236 0.50376451 65280
-0.27759999 -0.38938621 0.50308108 65280
-0.27245396 -0.38965511 0.50316471 65280
-0.26762259 -0.38993853 0.50379425 65280
-0.26266521 -0.38986874 0.50370544 65280
-0.25751907 -0.38881755 0.50267559 65280
-0.25296178 -0.38926518 0.50217468 65280
-0.24740803 -0.38969433 0.50249255 65280
-0.24293369 -0.38957083 0.50361216 65280
-0.23719962 -0.38954794 0.50387603 65280
-0.23225534 -0.38995445 0.50348681 65280
-0.22757965 -0.38959324 0.50334859 65280
-0.22275127 -0.38941047 0.50369751 65280
-0.21715982 -0.38967144 0.50377893 65280
-0.21231322 -0.38959348 0.50334841 65280
-0.20751493 -0.38980052 0.50361586 65280
-0.20281959 -0.39021379 0.50415123 65280
-0.1979053 -0.39021379 0.50415123 65280
-0.19268271 -0.38959348 0.50334841 65280
-0.1877369 -0.38944328 0.50240362 65280
-0.18276973 -0.39010769 0.50269753 65280
-0.17751914 -0.38925666 0.50258374 65280
-0.17299005 -0.38945523 0.50317025 65280
-0.16799571 -0.38924798 0.50290298 65280
-0.16330349 -0.3889336 0.50162292 65280
-0.050173771 -0.38958162 0.50071204 65280
-0.04691419 -0.38958162 0.50071204 65280
-0.042874642 -0.38989332 0.50111258 65280
-0.022467351 -0.38958162 0.50071204 65280
-0.017577983 -0.38958162 0.50071204 65280
-0.012701279 -0.38999724 0.50124609 65280
-0.0078042741 -0.38978946 0.50097913 65280
-0.0029098766 -0.38958162 0.50071204 65280
-0.35501054 -0.384222 0.50695956 65280
-0.35173532 -0.384222 0.50695956 65280
-0.34737059 -0.38473701 0.50696886 65280
-0.3416357 -0.38473701 0.50696886 65280
-0.33721703 -0.38496768 0.50633651 65280
-0.33263704 -0.38463908 0.50617146 65280
-0.32744604 -0.38546354 0.50618613 65280
-0.32225829 -0.38566947 0.50618994 65280
-0.31734547 -0.38566947 0.50618988 65280
-0.31257513 -0.38577282 0.50599343 65280
-0.30773747 -0.38526008 0.50565255 65280
-0.30269197 -0.38521838 0.50586355 65280
-0.29799539 -0.38534322 0.50652516 65280
-0.29301438 -0.38525206 0.50697815 65280
-0.2876074 -0.38541159 0.50618541 65280
-0.28237179 -0.38477367 0.50468421 65280
-0.27767786 -0.38451034 0.50378603 65280
-0.27196923 -0.38547009 0.50327575 65280
-0.2671493 -0.38485327 0.50379235 65280
-0.26225606 -0.3848533 0.50379241 65280
-0.25817895 -0.38557279 0.50340986 65280
-0.24186674 -0.38557279 0.50340986 65280
-0.23797973 -0.38588104 0.50381225 65280
-0.23308253 -0.38588104 0.50381225 65280
-0.22836551 -0.38505885 0.50379646 65280
-0.22247198 -0.38588104 0.50381225 65280
-0.21675856 -0.38588104 0.50381225 65280
-0.21233784 -0.38526458 0.50300741 65280
-0.20753047 -0.38541868 0.50320864 65280
-0.20161192 -0.38505885 0.50379646 65280
-0.19749852 -0.38536718 0.50380236 65280
-0.19359526 -0.38526458 0.50300741 65280
-0.1707782 -0.38526458 0.50300741 65280
-0.16833352 -0.38526458 0.50300741 65280
-0.35264114 -0.38070232 0.5068894 65280
-0.34761909 -0.38104495 0.50610054 65280
-0.34245315 -0.38155708 0.50611138 65280
-0.33755597 -0.38155708 0.50611138 65280
-0.3326588 -0.38155708 0.50611138 65280
-0.32741341 -0.38115072 0.50557244 65280
-0.32269159 -0.38135391 0.50584185 65280
-0.31796721 -0.38155708 0.50611138 65280
-0.31254402 -0.38073766 0.50609404 65280
-0.3080087 -0.38135391 0.50584185 65280
-0.30245942 -0.38155708 0.50611138 65280
-0.29662752 -0.38104495 0.50610054 65280
-0.29243064 -0.3805328 0.50608969 65280
-0.28774616 -0.38073766 0.50609404 65280
-0.28323367 -0.38094753 0.50530285 65280
0.17312026 -0.41708773 0.49627993 65280
0.17560013 -0.41708773 0.49627993 65280
0.20932606 -0.41675878 0.49588853 65280
0.21328814 -0.41642988 0.49549717 65280
0.21758714 -0.41675878 0.49588853 65280
0.22232537 -0.41784161 0.49550155 65280
0.22602452 -0.41818252 0.4956978 65280
0.0073749395 -0.41274792 0.49802113 65280
0.011918142 -0.41311291 0.49782714 65280
0.01578515 -0.41319507 0.49834967 65280
0.053259008 -0.41270849 0.49860841 65280
0.059045415 -0.41270849 0.49860841 65280
0.063145347 -0.41249156 0.49834624 65280
0.068138339 -0.41270849 0.49860841 65280
0.073098116 -0.41270849 0.49860841 65280
0.078015976 -0.41249156 0.49834624 65280
0.083269753 -0.41290185 0.49782607 65280
0.087908052 -0.41311291 0.49782714 65280
0.092863917 -0.41311291 0.49782714 65280
0.097070359 -0.41270849 0.49860841 65280
0.1036834 -0.41270849 0.49860841 65280
0.11773609 -0.41270849 0.49860841 65280
0.1225991 -0.41311291 0.49782714 65280
0.12755497 -0.41311288 0.49782708 65280
0.13220163 -0.41303203 0.49798331 65280
0.13592194 -0.41270849 0.49860841 65280
0.15245453 -0.41270849 0.49860841 65280
0.1577028 -0.41274792 0.49802113 65280
0.16242695 -0.41328555 0.49749261 65280
0.16720188 -0.41457146 0.49705154 65280
0.17215775 -0.41457149 0.4970516 65280
0.17728499 -0.41394299 0.49724406 65280
0.18202156 -0.41373348 0.49730825 65280
0.18702535 -0.41457149 0.4970516 65280
0.1919812 -0.41457149 0.4970516 65280
0.19688524 -0.4144626 0.49692059 65280
0.2022955 -0.4143272 0.49693868 65280
0.2077235 -0.41406783 0.49626762 65280
0.21311967 -0.41391709 0.49626693 65280
0.21806772 -0.41391709 0.49626693 65280
0.22301577 -0.41391709 0.49626693 65280
0.22824658 -0.41370231 0.497271 65280
0.23230945 -0.41358742 0.49749389 65280
0.23667733 -0.41327566 0.49802372 65280
0.24173048 -0.41270849 0.49860841 65280
0.24751687 -0.41270849 0.49860841 65280
0.25310352 -0.4135991 0.49756861 65280
0.25799108 -0.41446221 0.49692085 65280
0.26294649 -0.41446227 0.49692091 65280
0.26797113 -0.41457149 0.4970516 65280
0.27292699 -0.41457149 0.4970516 65280
0.27773708 -0.41435295 0.49679017 65280
0.28303543 -0.41306269 0.49751401 65280
0.28787115 -0.41249156 0.49834624 65280
0.29327863 -0.4129107 0.49821776 65280
0.29676351 -0.41367888 0.49724302 65280
-0.16166461 -0.40832928 0.50093687 65280
-0.15653916 -0.40789992 0.50041008 65280
-0.15174504 -0.40832928 0.50093687 65280
-0.1170266 -0.40832928 0.50093687 65280
-0.097187519 -0.40832928 0.50093687 65280
-0.082308181 -0.40832928 0.50093687 65280
-0.077348411 -0.40832928 0.50093687 65280
-0.051722903 -0.40832928 0.50093687 65280
-0.04758976 -0.40832928 0.50093687 65280
-0.042258989 -0.40852678 0.50015235 65280
-0.037640501 -0.40873712 0.50015378 65280
-0.032684635 -0.40873712 0.50015378 65280
-0.027714616 -0.40852165 0.49989074 65280
-0.02276136 -0.40852171 0.4998908 65280
-0.017812358 -0.40935889 0.49963436 65280
-0.013092636 -0.40891123 0.49981838 65280
-0.0079040667 -0.40852675 0.50015229 65280
-0.0029489852 -0.40852678 0.50015235 65280
0.0020064129 -0.40970954 0.49963674 65280
0.0069490205 -0.4094401 0.49845862 65280
0.011893492 -0.40933201 0.49832734 65280
0.016847368 -0.40954822 0.4985899 65280
0.021829868 -0.41019568 0.49937811 65280
0.026771203 -0.40900788 0.49963221 65280
0.031529002 -0.40920344 0.49976417 65280
0.037157036 -0.40849447 0.50003999 65280
0.042974368 -0.40946651 0.49976587 65280
0.048251621 -0.40920347 0.49976423 65280
0.053188566 -0.40997946 0.49911559 65280
0.058095917 -0.40965593 0.49872133 65280
0.063029088 -0.40954822 0.4985899 65280
0.06797713 -0.40954822 0.4985899 65280
0.072925165 -0.40954822 0.4985899 65280
0.077873208 -0.40954822 0.4985899 65280
0.082711689 -0.40900844 0.49793315 65280
0.087699912 -0.40922391 0.49819604 65280
0.092717327 -0.40954822 0.4985899 65280
0.09766537 -0.40954822 0.4985899 65280
0.10261341 -0.40954822 0.4985899 65280
0.10767483 -0.40997946 0.49911559 65280
0.11259844 -0.40987137 0.49898431 65280
0.11755038 -0.40987137 0.49898431 65280
0.12234064 -0.40933201 0.49832734 65280
0.12725294 -0.40922391 0.49819604 65280
0.13226722 -0.4094401 0.49845862 65280
0.1373582 -0.40987137 0.49898431 65280
0.14231016 -0.40987137 0.49898431 65280
0.14722289 -0.40976363 0.49885282 65280
0.15209381 -0.40954822 0.4985899 65280
0.15742294 -0.40921295 0.49836364 65280
0.16255653 -0.40890071 0.49780157 65280
0.16720696 -0.40959239 0.49737096 65280
0.17211655 -0.40952057 0.49728331 65280
0.17730662 -0.40910292 0.49741095 65280
0.18323147 -0.408889 0.4972415 65280
0.1877646 -0.40956694 0.49702269 65280
0.19286901 -0.41003036 0.49663469 65280
0.19775353 -0.40992188 0.49650368 65280
0.20274164 -0.41003036 0.49663469 65280
0.20756781 -0.4098134 0.49637252 65280
0.21233302 -0.40948793 0.49597934 65280
0.21737818 -0.40970486 0.49624145 65280
0.22233073 -0.4090156 0.49667096 65280
0.22734258 -0.4091664 0.49757954 65280
0.23272772 -0.40922391 0.49819604 65280
0.23785986 -0.40954822 0.4985899 65280
0.24280788 -0.40954822 0.4985899 65280
0.24775596 -0.40954822 0.4985899 65280
0.25297078 -0.40916342 0.49780357 65280
0.2577244 -0.40952057 0.49728331 65280
0.26257077 -0.40937641 0.49710825 65280
0.26746124 -0.40930435 0.49702072 65280
0.27231893 -0.40992644 0.49668995 65280
0.27760768 -0.40978861 0.49676323 65280
0.28187135 -0.40927768 0.49741244 65280
0.28734028 -0.40954822 0.4985899 65280
0.29245991 -0.40902829 0.49813834 65280
0.29623693 -0.40946615 0.49721783 65280
-0.28565899 -0.40395007 0.50326532 65280
-0.28235248 -0.40395007 0.50326532 65280
-0.27739269 -0.40395007 0.50326532 65280
-0.27325955 -0.40395007 0.50326532 65280
-0.26086009 -0.40395007 0.50326532 65280
-0.25755358 -0.40395007 0.50326532 65280
-0.25424707 -0.40395007 0.50326532 65280
-0.23606122 -0.40395007 0.50326532 65280
-0.2321585 -0.40399641 0.5026744 65280
-0.2276153 -0.40436137 0.50248039 65280
-0.22315994 -0.40415567 0.50287282 65280
-0.21787538 -0.40395007 0.50326532 65280
-0.21238346 -0.40415168 0.5024786 65280
-0.20779185 -0.40436137 0.50248039 65280
-0.2025896 -0.40482855 0.50209033 65280
-0.19788009 -0.40436134 0.50248033 65280
-0.19292422 -0.40436137 0.50248039 65280
-0.18832818 -0.40427911 0.50263733 65280
-0.18481021 -0.40395007 0.50326532 65280
-0.17241079 -0.40395007 0.50326532 65280
-0.1678147 -0.40444595 0.50203085 65280
-0.16284646 -0.40496582 0.50064886 65280
-0.15760876 -0.40421906 0.49972463 65280
-0.15279256 -0.40453917 0.50012076 65280
-0.14808734 -0.40517935 0.50091285 65280
-0.14265138 -0.40495288 0.50134784 65280
-0.13823807 -0.40417254 0.50169086 65280
-0.13246991 -0.40424728 0.50169158 65280
-0.12757029 -0.4047721 0.50169569 65280
-0.12288906 -0.40491337 0.50113511 65280
-0.11720742 -0.40502959 0.50091159 65280
-0.11180169 -0.40517935 0.50091285 65280
-0.1068255 -0.40434483 0.50116783 65280
-0.10187876 -0.40434483 0.50116783 65280
-0.097182058 -0.40482169 0.50102216 65280
-0.092009537 -0.40517935 0.50091285 65280
-0.08705385 -0.40441614 0.50125575 65280
-0.082105957 -0.40441591 0.50125587 65280
-0.077212282 -0.40470004 0.50160807 65280
-0.0725592 -0.40462831 0.50225747 65280
-0.069082119 -0.40395007 0.50326532 65280
-0.062437106 -0.40373772 0.50300074 65280
-0.057246283 -0.40482855 0.50209033 65280
-0.052420892 -0.40441591 0.50125587 65280
-0.047467783 -0.40455347 0.50110406 65280
-0.042529121 -0.40517935 0.50091285 65280
-0.037521664 -0.40453878 0.50012094 65280
-0.032572415 -0.40443221 0.49998882 65280
-0.027641231 -0.40453875 0.50012088 65280
-0.022712559 -0.40475193 0.50038517 65280
-0.018010292 -0.40454668 0.50068295 65280
-0.01262947 -0.40447325 0.50100517 65280
-0.0080972817 -0.40455347 0.50110406 65280
-0.0029436778 -0.40496543 0.50064909 65280
0.00220655 -0.40524432 0.50002891 65280
0.006933291 -0.40487429 0.49925038 65280
0.011858567 -0.40451723 0.49881107 65280
0.016802076 -0.40480298 0.49916247 65280
0.021747259 -0.40501714 0.49942613 65280
0.026468754 -0.40489626 0.50001174 65280
0.032490462 -0.4048585 0.50051719 65280
0.038279224 -0.40507239 0.500781 65280
0.043190911 -0.40475193 0.50038517 65280
0.048108783 -0.40453878 0.50012094 65280
0.053016044 -0.40501714 0.49942613 65280
0.05791226 -0.40545723 0.49868882 65280
0.063216239 -0.40555149 0.49816674 65280
0.067762174 -0.40534988 0.49855712 65280
0.072694577 -0.40534988 0.49855712 65280
0.077626973 -0.40534985 0.49855706 65280
0.082493894 -0.40575314 0.49777642 65280
0.087469071 -0.4052425 0.49842542 65280
0.092080414 -0.40543053 0.49840102 65280
0.097383164 -0.4054572 0.49868876 65280
0.10258158 -0.40526906 0.49900454 65280
0.10726915 -0.40480301 0.49916252 65280
0.11228192 -0.40508848 0.49951404 65280
0.1169733 -0.40512735 0.49924168 65280
0.12201854 -0.40534988 0.49855712 65280
0.12698404 -0.4054572 0.49868876 65280
0.13216744 -0.40504715 0.4991428 65280
0.13727421 -0.40486485 0.49949455 65280
0.14240812 -0.40494585 0.49933818 65280
0.1473183 -0.40503573 0.49916455 65280
0.15290514 -0.40496692 0.49904385 65280
0.15740766 -0.40569898 0.49856028 65280
0.16299248 -0.40575314 0.49777642 65280
0.16709954 -0.40575314 0.49777642 65280
0.17449225 -0.40575314 0.49777642 65280
0.17777792 -0.40575314 0.49777642 65280
0.18106358 -0.40575314 0.49777642 65280
0.22706276 -0.40575314 0.49777642 65280
0.23199123 -0.40575314 0.49777642 65280
0.23691972 -0.40575314 0.49777642 65280
0.24184819 -0.40575314 0.49777642 65280
0.2467767 -0.40575314 0.49777642 65280
0.25252658 -0.40575314 0.49777642 65280
0.25827649 -0.40575314 0.49777642 65280
0.26156214 -0.40575314 0.49777642 65280
0.2829189 -0.40526962 0.49803349 65280
0.28763837 -0.40549946 0.49855846 65280
0.29253972 -0.40530172 0.49824291 65280
-0.34021649 -0.39957085 0.50559384 65280
-0.33690998 -0.39957085 0.50559384 65280
-0.33207092 -0.39990264 0.50496435 65280
-0.32864368 -0.39957085 0.50559384 65280
-0.31541762 -0.39957085 0.50559384 65280
-0.31211111 -0.39957085 0.50559384 65280
-0.30698985 -0.39936081 0.505328 65280
-0.30203268 -0.39936081 0.505328 65280
-0.29652661 -0.39965016 0.50464565 65280
-0.29219022 -0.40081829 0.50422263 65280
-0.28745681 -0.40008265 0.50362283 65280
-0.28250846 -0.40081048 0.50323582 65280
-0.27756044 -0.40081048 0.50323582 65280
-0.27261236 -0.40081048 0.50323582 65280
-0.26779065 -0.40027267 0.50386155 65280
-0.26245853 -0.40018547 0.50342655 65280
-0.25694427 -0.40081048 0.50323582 65280
-0.25184539 -0.40063441 0.50357223 65280
-0.24753466 -0.40007266 0.50435621 65280
-0.24248289 -0.39998555 0.50480694 65280
-0.23704013 -0.4000586 0.50391877 65280
-0.23220403 -0.40081048 0.50323582 65280
-0.227256 -0.40081048 0.50323582 65280
-0.22228813 -0.40004742 0.50357866 65280
-0.21734081 -0.40004742 0.50357866 65280
-0.21241188 -0.40081048 0.50323582 65280
-0.20742282 -0.40018547 0.50342655 65280
-0.2024624 -0.39997712 0.50349021 65280
-0.19751568 -0.39997712 0.50349021 65280
-0.1926197 -0.40081048 0.50323582 65280
-0.18745705 -0.40054369 0.5034585 65280
-0.18258917 -0.40042293 0.50372499 65280
-0.17791611 -0.40039957 0.50402057 65280
-0.17303386 -0.40026453 0.50352615 65280
-0.16748226 -0.39986014 0.50204229 65280
-0.16276324 -0.40119818 0.50048143 65280
-0.15078767 -0.40140152 0.50009018 65280
-0.14714919 -0.40119818 0.50048149 65280
-0.1430974 -0.40063161 0.50106585 65280
-0.13775428 -0.39954314 0.50164461 65280
-0.13289255 -0.39975476 0.50190961 65280
-0.1278895 -0.39954314 0.50164461 65280
-0.12260852 -0.40078607 0.50087053 65280
-0.11802471 -0.40099484 0.50087273 65280
-0.11309231 -0.40099484 0.50087273 65280
-0.10833371 -0.3996276 0.50119525 65280
-0.10314566 -0.39922574 0.50124711 65280
-0.097556539 -0.40013304 0.50108826 65280
-0.09230914 -0.40010831 0.50129259 65280
-0.086471401 -0.39975169 0.50164706 65280
-0.081853807 -0.39954314 0.50164461 65280
-0.076981544 -0.39985979 0.50204247 65280
-0.072178878 -0.40059888 0.50297081 65280
-0.067357518 -0.4013384 0.50389898 65280
-0.062338147 -0.40091592 0.5033685 65280
-0.057298094 -0.40028226 0.50257295 65280
-0.05224606 -0.39943737 0.50151211 65280
-0.047310583 -0.39971828 0.5013088 65280
-0.042600323 -0.40045059 0.50116211 65280
-0.03743254 -0.40140152 0.50009018 65280
-0.032504056 -0.40140152 0.50009018 65280
-0.027575577 -0.40140152 0.50009018 65280
-0.022652648 -0.40078244 0.50060815 65280
-0.017179938 -0.40040514 0.50099754 65280
-0.013033515 -0.39980897 0.50142235 65280
-0.0076301428 -0.39971828 0.5013088 65280
-0.0031402553 -0.40037125 0.50106275 65280
0.0015846211 -0.40103889 0.500283 65280
0.0069238115 -0.40140152 0.50009018 65280
0.010209467 -0.40140152 0.50009018 65280
0.024173506 -0.40140152 0.50009018 65280
0.028288491 -0.40078247 0.50060821 65280
0.03323542 -0.40099484 0.50087273 65280
0.038167812 -0.40099478 0.50087267 65280
0.042737462 -0.40082133 0.5003987 65280
0.047994513 -0.40140152 0.50009018 65280
0.051280171 -0.40140152 0.50009018 65280
0.11124338 -0.40140152 0.50009018 65280
-0.35674906 -0.39519161 0.50792229 65280
-0.35261595 -0.39519161 0.50792229 65280
-0.34682956 -0.39519161 0.50792229 65280
-0.34196511 -0.39644361 0.50687909 65280
-0.33795607 -0.3960005 0.5066427 65280
-0.33307728 -0.39602572 0.50634617 65280
-0.32784677 -0.39623469 0.50634831 65280
-0.32273602 -0.39616576 0.50652337 65280
-0.31788945 -0.3956883 0.50624245 65280
-0.31304982 -0.39574844 0.50599033 65280
-0.30763716 -0.39659041 0.50556052 65280
-0.30265304 -0.39581746 0.50574911 65280
-0.2975491 -0.39560938 0.50581253 65280
-0.29306433 -0.39548984 0.50566041 65280
-0.28759906 -0.39550167 0.50435972 65280
-0.28258723 -0.39601704 0.50337791 65280
-0.27750549 -0.39663976 0.50318837 65280
-0.27230752 -0.39628392 0.50329661 65280
-0.26764071 -0.39518809 0.50396025 65280
-0.26263884 -0.39556736 0.50356984 65280
-0.25777593 -0.39663973 0.50318831 65280
-0.25284353 -0.39663979 0.50318837 65280
-0.24704024 -0.39581162 0.50396848 65280
-0.2424112 -0.39560634 0.50449288 65280
-0.23775499 -0.39510584 0.50411725 65280
-0.23261702 -0.39628392 0.50329661 65280
-0.22731391 -0.39601704 0.50337791 65280
-0.22285339 -0.39542627 0.5040763 65280
-0.2180223 -0.39510584 0.50411725 65280
-0.21288967 -0.39628398 0.50329667 65280
-0.20713685 -0.39539403 0.50356764 65280
-0.2018225 -0.39508346 0.5038271 65280
-0.19689141 -0.39508343 0.5038271 65280
-0.19201064 -0.39663976 0.50318837 65280
-0.18737766 -0.39643171 0.50318575 65280
-0.18248498 -0.39611959 0.50318176 65280
-0.17721345 -0.39518806 0.50396019 65280
-0.1722355 -0.39556736 0.50356984 65280
-0.16831118 -0.39656642 0.50266105 65280
-0.080146067 -0.39704993 0.50240397 65280
-0.057146478 -0.3966873 0.5025968 65280
-0.053039409 -0.39704993 0.50240397 65280
-0.35644773 -0.39103627 0.50786662 65280
-0.35272196 -0.39162853 0.5078752 65280
-0.3473835 -0.39103624 0.50786662 65280
-0.34282926 -0.39162853 0.5078752 65280
-0.33749524 -0.39176229 0.50748056 65280
-0.332288 -0.39145291 0.50707877 65280
-0.32762557 -0.39153609 0.50692129 65280
-0.32288906 -0.39104006 0.50654334 65280
-0.31739813 -0.39068511 0.50627363 65280
-0.31221288 -0.39079177 0.50595796 65280
-0.30729976 -0.39192939 0.50561196 65280
-0.30182967 -0.39101115 0.50593847 65280
-0.29723507 -0.39083305 0.50627583 65280
-0.29203486 -0.39109987 0.50605303 65280
-0.28796381 -0.39197308 0.50510341 65280
-0.24114321 -0.39269835 0.50471777 65280
-0.23950037 -0.39269835 0.50471777 65280
-0.22142927 -0.39269835 0.50471777 65280
-0.21978645 -0.39269835 0.50471777 65280
-0.35614115 -0.38689622 0.50780278 65280
-0.35244483 -0.38725883 0.50761002 65280
-0.347927 -0.38737974 0.50754571 65280
-0.34299853 -0.38737974 0.50754571 65280
-0.33807003 -0.38834673 0.50703156 65280
-0.33314157 -0.38834673 0.50703156 65280
-0.29699937 -0.38834673 0.50703156 65280
-0.29207087 -0.38834673 0.50703156 65280
0.1836502 -0.43361837 0.49315333 65280
0.1869828 -0.43361837 0.49315333 65280
0.19198167 -0.43361837 0.49315333 65280
0.29862469 -0.43361837 0.49315333 65280
0.300291 -0.43361837 0.49315333 65280
0.082839236 -0.42920461 0.49550018 65280
0.086981855 -0.42982829 0.49497974 65280
0.09195631 -0.42971635 0.49485049 65280
0.097002752 -0.42920461 0.49550018 65280
0.13366129 -0.42920461 0.49550018 65280
0.13699389 -0.42920461 0.49550018 65280
0.15199056 -0.42920461 0.49550018 65280
0.15740603 -0.4295724 0.49530461 65280
0.16157177 -0.4295724 0.49530461 65280
0.16698724 -0.42920461 0.49550018 65280
0.17198612 -0.42994022 0.49510896 65280
0.17710435 -0.42996758 0.494609 65280
0.18205929 -0.42992374 0.49409842 65280
0.18714574 -0.42977819 0.49368498 65280
0.19203974 -0.43052337 0.49423268 65280
0.19674253 -0.43025547 0.49494135 65280
0.20086861 -0.42969504 0.49523944 65280
0.20864466 -0.42920461 0.49550018 65280
0.21197724 -0.42920461 0.49550018 65280
0.2177231 -0.42903668 0.49530634 65280
0.2225161 -0.42938048 0.49446276 65280
0.2275089 -0.42938051 0.49446282 65280
0.23223348 -0.42995301 0.4948757 65280
0.23655513 -0.4295724 0.49530461 65280
0.24197058 -0.42920461 0.49550018 65280
0.24696948 -0.42920461 0.49550018 65280
0.25196838 -0.42920461 0.49550018 65280
0.25696728 -0.42920461 0.49550018 65280
0.26196617 -0.42920461 0.49550018 65280
0.26696503 -0.42920461 0.49550018 65280
0.27238053 -0.4295724 0.49530461 65280
0.27696285 -0.42920461 0.49550018 65280
0.28196174 -0.42920461 0.49550018 65280
0.29251495 -0.43018541 0.49497861 65280
0.29724467 -0.43046156 0.49471849 65280
0.300291 -0.4314115 0.49432677 65280
0.012854762 -0.42479086 0.49784702 65280
0.017020505 -0.42479086 0.49784702 65280
0.022019396 -0.42479086 0.49784702 65280
0.027018286 -0.42479086 0.49784702 65280
0.032350436 -0.42537934 0.4975341 65280
0.037005976 -0.42541566 0.49732596 65280
0.041970689 -0.42508328 0.49693638 65280
0.04696523 -0.42508328 0.49693644 65280
