# .PCD v0.7 - Point Cloud Data file format
VERSION 0.7
FIELDS x y z rgba
SIZE 4 4 4 4
TYPE F F F U
COUNT 1 1 1 1
WIDTH 1180
HEIGHT 1
VIEWPOINT 0 0 0 1 0 0 0
POINTS 1180
DATA ascii
0.21251622 -0.54488027 0.48779148 65280
0.21647725 -0.54353726 0.48793924 65280
0.22924609 -0.54422009 0.48719865 65280
0.23243611 -0.54541063 0.48826438 65280
0.2357506 -0.54845285 0.48872319 65280
0.09201619 -0.54052103 0.49294063 65280
0.097406231 -0.54052097 0.49294057 65280
0.10099959 -0.54052103 0.49294063 65280
0.16927344 -0.54052103 0.49294063 65280
0.17312524 -0.54084176 0.49231714 65280
0.17697369 -0.54078829 0.49242097 65280
0.18185019 -0.54052097 0.49294057 65280
0.18710436 -0.54092193 0.49216115 65280
0.19247437 -0.54167128 0.49169984 65280
0.19757295 -0.54088426 0.49098575 65280
0.20285429 -0.54102516 0.49139851 65280
0.20747414 -0.5422219 0.49187452 65280
0.21225588 -0.5417574 0.49177989 65280
0.21715048 -0.5405333 0.49066901 65280
0.22151197 -0.5395512 0.48920918 65280
0.22738025 -0.54042429 0.48894724 65280
0.23249225 -0.5407964 0.49090657 65280
0.23676018 -0.54131591 0.49229142 65280
0.24114063 -0.54052103 0.49294063 65280
0.28426093 -0.54052103 0.49294063 65280
0.28743652 -0.53973651 0.4922252 65280
0.29213452 -0.54012877 0.49258295 65280
0.29683772 -0.54052097 0.49294057 65280
0.30043107 -0.54052103 0.49294063 65280
0.0075722318 -0.53576183 0.49547103 65280
0.028212911 -0.53537309 0.49511158 65280
0.032710787 -0.53550267 0.49523139 65280
0.06326931 -0.53576189 0.49547109 65280
0.066862673 -0.53576183 0.49547103 65280
0.072252713 -0.53576183 0.49547103 65280
0.078541093 -0.53576189 0.49547109 65280
0.082991756 -0.53550267 0.49523139 65280
0.087460965 -0.53695887 0.49426833 65280
0.091837697 -0.53710049 0.4932493 65280
0.097194172 -0.53697044 0.49312964 65280
0.10264794 -0.5373612 0.49348819 65280
0.1084778 -0.53617239 0.4941203 65280
0.11226954 -0.53577226 0.49471051 65280
0.11627137 -0.53576189 0.49547109 65280
0.14861161 -0.53576189 0.49547109 65280
0.15310331 -0.53576183 0.49547103 65280
0.15759501 -0.53576189 0.49547109 65280
0.16230489 -0.53656399 0.4943651 65280
0.16711216 -0.53697044 0.49312964 65280
0.17236501 -0.53657937 0.49277136 65280
0.17778295 -0.53670973 0.49289072 65280
0.1828616 -0.5367341 0.4931421 65280
0.18721807 -0.53720683 0.49311718 65280
0.19211727 -0.53670973 0.49289072 65280
0.19734927 -0.53631938 0.49253204 65280
0.2028199 -0.53657937 0.49277136 65280
0.20737433 -0.53677487 0.4929505 65280
0.21218781 -0.53762114 0.49372745 65280
0.21720298 -0.53670973 0.49289072 65280
0.2217754 -0.53629631 0.49108142 65280
0.22754383 -0.53619885 0.49099165 65280
0.23229484 -0.5363844 0.49259189 65280
0.23703013 -0.53697044 0.49312964 65280
0.24240841 -0.53697044 0.49312964 65280
0.24760814 -0.53720295 0.49357235 65280
0.25173724 -0.5377515 0.49384695 65280
0.2569373 -0.53656834 0.49390975 65280
0.2626026 -0.53704691 0.4934288 65280
0.26770172 -0.53736156 0.49348801 65280
0.27268702 -0.53578848 0.49319187 65280
0.27750036 -0.53723121 0.49336854 65280
0.28260711 -0.53671014 0.49289054 65280
0.28712583 -0.53626961 0.49225652 65280
0.29232261 -0.53644943 0.4926517 65280
0.29798424 -0.53697044 0.49312964 65280
0.30257648 -0.537166 0.49330884 65280
0.30683377 -0.53715992 0.4938783 65280
0.31240126 -0.53630841 0.49367043 65280
0.31747365 -0.53578848 0.49319187 65280
0.32188168 -0.53751975 0.49340397 65280
-0.10651695 -0.53100276 0.49800158 65280
-0.10022857 -0.53258914 0.49715808 65280
-0.097533546 -0.53258914 0.49715808 65280
-0.093041845 -0.53258914 0.49715799 65280
-0.087651812 -0.53258914 0.49715799 65280
-0.082261764 -0.53100276 0.49800152 65280
-0.075075045 -0.53100276 0.49800158 65280
-0.073278368 -0.53100276 0.49800158 65280
-0.061599948 -0.53100276 0.49800158 65280
-0.031954728 -0.53100276 0.49800158 65280
-0.022498457 -0.53240603 0.49640608 65280
-0.017546831 -0.5323509 0.49577466 65280
-0.013079436 -0.53220266 0.49679732 65280
-0.0059028678 -0.53100276 0.49800158 65280
-0.0023095079 -0.53179598 0.49757981 65280
0.0025366843 -0.53229564 0.49595511 65280
0.0075557469 -0.53222167 0.49565461 65280
0.012950163 -0.53286701 0.49625528 65280
0.01742864 -0.53181618 0.49643654 65280
0.022285895 -0.53275996 0.49638781 65280
0.027255496 -0.53183442 0.49529427 65280
0.032631628 -0.53183448 0.49529427 65280
0.037713762 -0.53260481 0.49624366 65280
0.043505829 -0.53100276 0.49800158 65280
0.048895869 -0.53100276 0.49800158 65280
0.05428591 -0.53258914 0.49715808 65280
0.058153562 -0.53245026 0.49609938 65280
0.063131578 -0.53222167 0.49565461 65280
0.067613497 -0.53222167 0.49565461 65280
0.072095416 -0.53222173 0.49565467 65280
0.077473722 -0.53222167 0.49565461 65280
0.082791775 -0.53183407 0.49529445 65280
0.088341326 -0.53213739 0.49470854 65280
0.092509963 -0.53185117 0.49415275 65280
0.096982114 -0.53185117 0.49415275 65280
0.10234869 -0.53185117 0.49415275 65280
0.10755086 -0.5319438 0.4945282 65280
0.11226917 -0.53144759 0.49493372 65280
0.11688671 -0.53209245 0.49553454 65280
0.12232301 -0.5323509 0.49577466 65280
0.12731557 -0.53221273 0.49622566 65280
0.1331463 -0.53181618 0.49643654 65280
0.13763149 -0.53181618 0.49643654 65280
0.1420818 -0.53248012 0.49589467 65280
0.14728363 -0.53183448 0.49529427 65280
0.15262271 -0.53170562 0.49517399 65280
0.15810953 -0.53209245 0.49553454 65280
0.16306902 -0.53196889 0.49503404 65280
0.16709204 -0.53243589 0.49440825 65280
0.17175104 -0.53196901 0.49360478 65280
0.17743844 -0.53251058 0.49361345 65280
0.18317859 -0.53252381 0.49411881 65280
0.18774119 -0.53173608 0.49437574 65280
0.19201449 -0.53204823 0.49404797 65280
0.19691817 -0.53199255 0.49313375 65280
0.20242672 -0.53238142 0.49349338 65280
0.20819126 -0.53224206 0.49422812 65280
0.21287884 -0.53195727 0.49458176 65280
0.21687958 -0.53241265 0.49401599 65280
0.22009195 -0.53265154 0.49259466 65280
0.22902322 -0.53265154 0.49259466 65280
0.23330474 -0.53185934 0.49339348 65280
0.23773563 -0.53201628 0.49338552 65280
0.24209575 -0.53248721 0.4933615 65280
0.2472461 -0.53264058 0.49373305 65280
0.25261271 -0.53264058 0.49373305 65280
0.25762147 -0.53279829 0.49364918 65280
0.26225945 -0.53304029 0.49295419 65280
0.26679385 -0.53316998 0.49307409 65280
0.27215782 -0.53238142 0.49349338 65280
0.27745432 -0.53225178 0.49337354 65280
0.28155652 -0.53238505 0.49311396 65280
0.28886256 -0.53265154 0.49259466 65280
0.29264915 -0.53304029 0.49295419 65280
0.29733497 -0.53264016 0.49373326 65280
0.3027007 -0.53185123 0.49415281 65280
0.30779824 -0.53263742 0.49396124 65280
0.31175789 -0.53322923 0.49370322 65280
0.31701154 -0.53342915 0.49331376 65280
0.32124937 -0.53225172 0.49337348 65280
-0.17568913 -0.52783 0.49968857 65280
-0.17299411 -0.52783 0.49968857 65280
-0.16311236 -0.52783 0.49968848 65280
-0.15710278 -0.52765203 0.49893376 65280
-0.15211119 -0.52785718 0.49854159 65280
-0.14712992 -0.52816898 0.49860224 65280
-0.14313911 -0.52706397 0.49896333 65280
-0.13795884 -0.52783 0.49968848 65280
-0.13187978 -0.52726907 0.49857116 65280
-0.12693308 -0.527601 0.49830025 65280
-0.12241997 -0.52747297 0.49817955 65280
-0.11805198 -0.52798486 0.49866247 65280
-0.11231588 -0.5280351 0.49929637 65280
-0.10720873 -0.52760065 0.49830043 65280
-0.10228325 -0.52832645 0.49748307 65280
-0.097851127 -0.52729887 0.49713963 65280
-0.092741475 -0.52770996 0.49723566 65280
-0.08743979 -0.52813655 0.49763802 65280
-0.082062349 -0.52734488 0.49805889 65280
-0.077600762 -0.52747297 0.49817961 65280
-0.072840117 -0.52764755 0.49784404 65280
-0.067691267 -0.52788115 0.49739629 65280
-0.062547259 -0.52720946 0.49742979 65280
-0.056997299 -0.527601 0.49830025 65280
-0.052540183 -0.52706397 0.49896333 65280
-0.048054997 -0.52706397 0.49896333 65280
-0.042208761 -0.52726907 0.49857116 65280
-0.037272934 -0.527601 0.49830025 65280
-0.031625923 -0.52775735 0.49794745 65280
-0.027376883 -0.52775276 0.49727577 65280
-0.023095569 -0.52730983 0.49656743 65280
-0.01724517 -0.52745378 0.49632913 65280
-0.012148803 -0.52762455 0.49715519 65280
-0.0078588407 -0.52771741 0.49770981 65280
-0.0029436506 -0.52753818 0.49774045 65280
0.0021726906 -0.52711272 0.49667221 65280
0.0075380644 -0.52745378 0.49632913 65280
0.012908214 -0.52719814 0.49675268 65280
0.01738642 -0.5273689 0.49691355 65280
0.021638455 -0.52759832 0.49683893 65280
0.027195984 -0.52751684 0.49589115 65280
0.03255203 -0.52738839 0.49577075 65280
0.037975289 -0.52745354 0.4969945 65280
0.042329405 -0.52787107 0.49785456 65280
0.046996657 -0.52747291 0.49817955 65280
0.052327532 -0.52779555 0.49731594 65280
0.057359338 -0.52745378 0.49632919 65280
0.062947921 -0.52751678 0.49589109 65280
0.067625448 -0.52727437 0.49635977 65280
0.071985297 -0.52745378 0.49699429 65280
0.077379808 -0.52762425 0.49715531 65280
0.082398117 -0.52745342 0.49632931 65280
0.087494366 -0.52771842 0.49550083 65280
0.092375115 -0.52792007 0.49511045 65280
0.095947623 -0.52792007 0.49511045 65280
0.11291698 -0.52792013 0.49511051 65280
0.11773787 -0.52765125 0.49563098 65280
0.12196726 -0.52764529 0.49601161 65280
0.12745501 -0.52815831 0.49649385 65280
0.13285603 -0.52828634 0.49661461 65280
0.13780728 -0.5278976 0.49648142 65280
0.14170289 -0.52829647 0.49604285 65280
0.14685573 -0.52792013 0.49511051 65280
0.15221448 -0.52792013 0.49511051 65280
0.15757322 -0.52792013 0.49511051 65280
0.16293196 -0.52792013 0.49511051 65280
-0.31223682 -0.52307087 0.50221896 65280
-0.3077451 -0.52307093 0.50221902 65280
-0.27700102 -0.52269131 0.5018546 65280
-0.27257705 -0.52281785 0.50197601 65280
-0.26821816 -0.52307093 0.50221902 65280
-0.24692816 -0.52308786 0.50164366 65280
-0.24217363 -0.5232631 0.50098431 65280
-0.2376601 -0.52248979 0.50071585 65280
-0.23320326 -0.5229463 0.50115275 65280
-0.22757156 -0.52256477 0.50173306 65280
-0.22218849 -0.52256477 0.50173306 65280
-0.21759483 -0.52231175 0.50149012 65280
-0.21310966 -0.52231175 0.50149012 65280
-0.20772743 -0.52310491 0.50106835 65280
-0.20229666 -0.52297795 0.50094706 65280
-0.19726352 -0.52311081 0.50083882 65280
-0.19282378 -0.52308446 0.50175869 65280
-0.18826589 -0.52307093 0.50221902 65280
-0.18287586 -0.52307087 0.50221896 65280
-0.17715536 -0.5236786 0.50043988 65280
-0.17249097 -0.52313602 0.49991924 65280
-0.16775845 -0.52284288 0.49993363 65280
-0.16263889 -0.5231359 0.49991935 65280
-0.15735766 -0.52304232 0.49916008 65280
-0.15256345 -0.52395236 0.49835265 65280
-0.1480913 -0.52395236 0.49835265 65280
-0.14275853 -0.52329028 0.49889344 65280
-0.13749121 -0.52367139 0.49925706 65280
-0.13199246 -0.52316332 0.49877217 65280
-0.12775519 -0.52317202 0.49839008 65280
-0.12292686 -0.52344316 0.49786845 65280
-0.11735675 -0.52347374 0.49883366 65280
-0.11247788 -0.52392519 0.49949968 65280
-0.10697445 -0.52329028 0.49889344 65280
-0.102674 -0.52291745 0.49814796 65280
-0.098753572 -0.52318859 0.49762622 65280
-0.092055134 -0.52279431 0.49783587 65280
-0.087163717 -0.52252734 0.49816668 65280
-0.081922628 -0.52329028 0.4988935 65280
-0.077403553 -0.52297282 0.49859035 65280
-0.073353343 -0.52317613 0.49819905 65280
-0.06838733 -0.52318859 0.49762622 65280
-0.062135458 -0.52318859 0.49762627 65280
-0.056817498 -0.52317613 0.49819905 65280
-0.052908052 -0.52285326 0.49871045 65280
-0.04791531 -0.52316374 0.49877197 65280
-0.042979792 -0.52336705 0.49838072 65280
-0.037182167 -0.52395236 0.49835265 65280
-0.032710023 -0.52395236 0.49835265 65280
-0.028196717 -0.52318859 0.49762627 65280
-0.011227348 -0.52318859 0.49762622 65280
-0.007654849 -0.52318859 0.49762622 65280
-0.003189225 -0.52318859 0.49762627 65280
0.038816601 -0.52357042 0.49798942 65280
0.042406842 -0.52297282 0.49859035 65280
0.046904638 -0.52329028 0.4988935 65280
0.051291384 -0.52318859 0.49762622 65280
0.0736195 -0.52318859 0.49762622 65280
0.076298878 -0.52318859 0.49762622 65280
-0.38749403 -0.5185104 0.50351131 65280
-0.38264775 -0.51861668 0.5034548 65280
-0.37774861 -0.51921964 0.50351179 65280
-0.37285566 -0.51879585 0.50426555 65280
-0.36818638 -0.51879585 0.50426561 65280
-0.36344218 -0.51831174 0.50474948 65280
-0.35625547 -0.51831174 0.50474948 65280
-0.3524068 -0.51793563 0.50438321 65280
-0.34783438 -0.51781023 0.50426108 65280
-0.34228286 -0.51755953 0.50401694 65280
-0.33706298 -0.51781023 0.50426108 65280
-0.33265638 -0.51793563 0.50438321 65280
-0.32748178 -0.51795614 0.50380605 65280
-0.3224695 -0.51822692 0.50347328 65280
-0.31761259 -0.51926339 0.50294912 65280
-0.31294543 -0.51932442 0.50239891 65280
-0.30767289 -0.51905417 0.50190091 65280
-0.30266657 -0.51915687 0.50279009 65280
-0.29798698 -0.51814419 0.50398922 65280
-0.29233271 -0.51806104 0.50450528 65280
-0.28726467 -0.51808834 0.50373578 65280
-0.28263789 -0.51962674 0.50269127 65280
-0.27753738 -0.51919806 0.5014469 65280
-0.27172035 -0.51919806 0.50144684 65280
-0.267243 -0.518803 0.50165695 65280
-0.2629078 -0.51962721 0.50269103 65280
-0.257774 -0.51797539 0.5032295 65280
-0.25257924 -0.5199368 0.5027529 65280
-0.24712417 -0.51918721 0.50179243 65280
-0.24254295 -0.51826715 0.5013755 65280
-0.23736103 -0.51804692 0.50092638 65280
-0.23222356 -0.51855111 0.50141335 65280
-0.22696632 -0.51880264 0.50165719 65280
-0.22249094 -0.51880264 0.50165719 65280
-0.21801551 -0.51880264 0.50165719 65280
-0.21254222 -0.51855111 0.50141329 65280
-0.20712359 -0.51842535 0.50129139 65280
-0.20250374 -0.51804686 0.50092632 65280
-0.19803487 -0.51804692 0.50092638 65280
-0.19299881 -0.51892877 0.50177878 65280
-0.18790114 -0.51968443 0.50250953 65280
-0.18247771 -0.51955831 0.50238782 65280
-0.17767316 -0.5186134 0.50147462 65280
-0.17332949 -0.51806277 0.50035167 65280
-0.16752417 -0.51845711 0.5001421 65280
-0.16216542 -0.51845711 0.5001421 65280
-0.15769979 -0.51924568 0.49972272 65280
-0.14073044 -0.52003425 0.4993034 65280
-0.13715793 -0.52003431 0.49930346 65280
-0.13358544 -0.52003425 0.4993034 65280
-0.1117932 -0.5194034 0.49963886 65280
-0.10768482 -0.52003425 0.4993034 65280
-0.38718575 -0.5140608 0.50417846 65280
-0.38280281 -0.51418531 0.50430083 65280
-0.37761465 -0.51443458 0.50454593 65280
-0.37251118 -0.51480961 0.50491279 65280
-0.3671329 -0.51480961 0.50491279 65280
-0.36227018 -0.51519275 0.50504887 65280
-0.35775813 -0.51457638 0.50492346 65280
-0.35289297 -0.51459324 0.50446159 65280
-0.34844202 -0.5136869 0.50381088 65280
-0.34307674 -0.51447552 0.50339156 65280
-0.33820245 -0.51522547 0.50412542 65280
-0.33234358 -0.5136869 0.50381088 65280
-0.32723945 -0.51369464 0.50358027 65280
-0.32250357 -0.5136869 0.50381088 65280
-0.31780028 -0.51331198 0.50344402 65280
-0.31284112 -0.51512325 0.50259423 65280
-0.30685163 -0.51530278 0.50181925 65280
-0.30260608 -0.51567888 0.50218546 65280
-0.29738709 -0.51382482 0.50354886 65280
-0.29280129 -0.5138278 0.50418901 65280
-0.28817546 -0.51426816 0.50378501 65280
-0.28294429 -0.51567888 0.50218546 65280
-0.26193956 -0.51528454 0.50239509 65280
-0.25696161 -0.51397556 0.50290245 65280
-0.25205541 -0.51512325 0.50259423 65280
-0.24790542 -0.51477706 0.5020988 65280
-0.22379103 -0.51530278 0.50181919 65280
-0.19163853 -0.51530278 0.50181919 65280
-0.18686233 -0.51528454 0.50239509 65280
-0.18245979 -0.51547265 0.50257826 65280
-0.17824167 -0.51530278 0.50181919 65280
-0.38723284 -0.51057124 0.50433499 65280
-0.38008788 -0.51057124 0.50433499 65280
-0.37740847 -0.51057124 0.50433499 65280
-0.37330493 -0.51106817 0.50482583 65280
-0.36760852 -0.51064062 0.50543058 65280
-0.36292866 -0.51103932 0.50559616 65280
-0.35756209 -0.51156509 0.50531667 65280
-0.35329413 -0.51057124 0.50433499 65280
-0.10095592 -0.565216 0.48547292 65280
-0.097336479 -0.565216 0.48547292 65280
0.19583787 -0.565216 0.48547292 65280
0.23711926 -0.56440163 0.4847734 65280
0.17227016 -0.56161934 0.48719651 65280
0.17722489 -0.56301624 0.48635942 65280
0.18316984 -0.56095499 0.48773855 65280
0.19267088 -0.56082183 0.48780933 65280
0.19629821 -0.56151235 0.48495048 65280
0.23429348 -0.56195837 0.48267481 65280
0.23785236 -0.56080496 0.48611945 65280
0.16823968 -0.55682713 0.48993337 65280
0.17224863 -0.55733299 0.4882082 65280
0.17693955 -0.55681384 0.48739213 65280
0.18290681 -0.55722189 0.48859093 65280
0.18762621 -0.55782479 0.48911977 65280
0.19273792 -0.55692041 0.48832643 65280
0.19634211 -0.5568077 0.48654598 65280
0.23733652 -0.55640882 0.48675808 65280
0.24168408 -0.55722654 0.48972097 65280
0.16733482 -0.55283237 0.49205738 65280
0.17181323 -0.55243421 0.49000397 65280
0.17697237 -0.55163592 0.48929587 65280
0.182437 -0.55181384 0.48945299 65280
0.18787433 -0.55190277 0.48953152 65280
0.19312674 -0.55145878 0.48913845 65280
0.19650844 -0.55242628 0.48774311 65280
0.23823683 -0.55163586 0.4892959 65280
0.24205573 -0.55296636 0.49123108 65280
0.087675132 -0.54784149 0.49442798 65280
0.092505448 -0.54738611 0.49344316 65280
0.097854346 -0.54699033 0.4930872 65280
0.10245286 -0.54745126 0.49350291 65280
0.1066713 -0.54784149 0.49442798 65280
0.11259085 -0.54763925 0.49481863 65280
0.11711513 -0.54763925 0.49481863 65280
0.15964352 -0.54763925 0.49481863 65280
0.16340645 -0.54817808 0.49377707 65280
0.16760273 -0.54765612 0.49254453 65280
0.17233782 -0.54731786 0.49159184 65280
0.17757303 -0.54739332 0.49155173 65280
0.18215284 -0.5470618 0.49172795 65280
0.18764788 -0.54726279 0.49105489 65280
0.19201021 -0.54686594 0.49069959 65280
0.23737919 -0.54686415 0.4913801 65280
0.24230841 -0.54791939 0.492782 65280
0.24732605 -0.54824096 0.49421558 65280
0.25193915 -0.54763925 0.49481863 65280
0.25646344 -0.54763925 0.49481863 65280
0.27908492 -0.54763925 0.49481863 65280
0.28270435 -0.54763925 0.49481863 65280
0.28778711 -0.54778063 0.49379969 65280
0.29235476 -0.54669976 0.49305308 65280
0.29745057 -0.54862344 0.49341455 65280
0.30236134 -0.54878628 0.49356157 65280
0.3073667 -0.5476442 0.49424976 65280
0.31165987 -0.54763925 0.49481863 65280
0.32342303 -0.54763925 0.49481863 65280
0.32590264 -0.54804373 0.49403736 65280
-0.10095592 -0.54284561 0.49736744 65280
-0.097336479 -0.54284561 0.49736744 65280
-0.091907322 -0.54284561 0.49736744 65280
-0.087383024 -0.54284561 0.49736744 65280
-0.083763592 -0.54284561 0.49736744 65280
-0.023127785 -0.5425849 0.49712861 65280
-0.017700369 -0.5425849 0.49712861 65280
-0.014089436 -0.54284561 0.49736744 65280
-0.0014214086 -0.54284561 0.49736744 65280
0.0026490139 -0.54304957 0.4969759 65280
0.0076161921 -0.54286242 0.49622601 65280
0.013041094 -0.54299277 0.49634546 65280
0.017567966 -0.54325348 0.49658436 65280
0.022083258 -0.54312307 0.49646485 65280
0.027502343 -0.54317862 0.49628434 65280
0.032915741 -0.54286242 0.49622601 65280
0.037460525 -0.54325348 0.49658436 65280
0.041106969 -0.54284561 0.49736744 65280
0.053774998 -0.54284561 0.49736744 65280
0.057869624 -0.54285902 0.49645427 65280
0.061855 -0.54434037 0.49576384 65280
0.067299366 -0.54485023 0.49573538 65280
0.072671428 -0.54366028 0.49580169 65280
0.077732608 -0.54365993 0.49580193 65280
0.082044005 -0.54446042 0.49514985 65280
0.086918212 -0.54314816 0.49418643 65280
0.092229873 -0.54273081 0.49357778 65280
0.097642727 -0.54341871 0.4932875 65280
0.1034252 -0.54288769 0.49372083 65280
0.10767727 -0.54327893 0.49430567 65280
0.11221272 -0.54341006 0.49442464 65280
0.11808417 -0.54400378 0.49545726 65280
0.12239736 -0.54379129 0.49592087 65280
0.12657104 -0.54304957 0.4969759 65280
0.13068803 -0.54284561 0.49736744 65280
0.13883176 -0.54284561 0.49736744 65280
0.1424512 -0.54284561 0.49736744 65280
0.14720933 -0.54301548 0.49659762 65280
0.15222208 -0.54352498 0.49606246 65280
0.15738072 -0.5442282 0.49566147 65280
0.16263433 -0.54314816 0.49418637 65280
0.16745669 -0.54257345 0.49343494 65280
0.1731177 -0.54395336 0.49224824 65280
0.17761591 -0.54368854 0.49238902 65280
0.18256395 -0.54329139 0.4926002 65280
0.187512 -0.54448289 0.49196666 65280
0.23789205 -0.54289424 0.49281138 65280
0.24220294 -0.54308712 0.49355823 65280
0.24724717 -0.54288626 0.49394813 65280
0.2528348 -0.54327893 0.49430567 65280
0.25799501 -0.54335582 0.49460447 65280
0.26270348 -0.54446083 0.49514955 65280
0.267169 -0.54367059 0.49489027 65280
0.27215946 -0.54406571 0.49501994 65280
0.27744326 -0.54380339 0.49478173 65280
0.28184164 -0.54304552 0.49386352 65280
0.28661036 -0.54315645 0.49304947 65280
0.29187068 -0.54289424 0.49281138 65280
0.29755577 -0.54341871 0.4932875 65280
0.30328947 -0.54273081 0.49357778 65280
0.307944 -0.54347563 0.49448428 65280
0.3124758 -0.54398441 0.49517643 65280
0.31745735 -0.5443272 0.49525839 65280
0.32274154 -0.54356146 0.49439812 65280
-0.18601267 -0.53805196 0.49991629 65280
-0.18239324 -0.53805196 0.49991629 65280
-0.17696409 -0.53805196 0.49991629 65280
-0.15615232 -0.53805196 0.49991629 65280
-0.15253288 -0.53805196 0.49991629 65280
-0.14800858 -0.53805196 0.49991629 65280
-0.14348429 -0.53805196 0.49991629 65280
-0.13262598 -0.53805196 0.49991629 65280
-0.12751082 -0.53786993 0.49916363 65280
-0.12267253 -0.53964984 0.49906668 65280
-0.11753722 -0.53838098 0.49928832 65280
-0.11176008 -0.53912508 0.49896815 65280
-0.10725161 -0.54025435 0.49846211 65280
-0.10261843 -0.53967083 0.49792299 65280
-0.097055972 -0.53889239 0.49720424 65280
-0.092544712 -0.53889245 0.4972043 65280
-0.08803346 -0.53889239 0.49720424 65280
-0.082678773 -0.53928167 0.49756366 65280
-0.077391952 -0.54018962 0.49840224 65280
-0.072452851 -0.54004931 0.49885428 65280
-0.067476124 -0.53964984 0.49906668 65280
-0.062951833 -0.53964984 0.49906668 65280
-0.05795373 -0.5382576 0.49952382 65280
-0.052093521 -0.53805196 0.49991629 65280
-0.047569223 -0.53805196 0.49991629 65280
-0.043044932 -0.53845143 0.49970388 65280
-0.037602223 -0.5382576 0.49952382 65280
-0.03216343 -0.5389955 0.49884838 65280
-0.027632754 -0.53986561 0.49810255 65280
-0.023060672 -0.53863251 0.49696493 65280
-0.017631888 -0.5381133 0.49648595 65280
-0.012254823 -0.5394116 0.49768329 65280
-0.0068456284 -0.54006004 0.49828237 65280
-0.002321892 -0.53928185 0.49756351 65280
0.002188185 -0.53824294 0.49660581 65280
0.0075942124 -0.53890806 0.49606341 65280
0.012997632 -0.53798336 0.49636638 65280
0.017517302 -0.53850251 0.49684533 65280
0.022008507 -0.53811294 0.49648619 65280
0.02703088 -0.53844059 0.49563241 65280
0.032805786 -0.53864807 0.4958241 65280
0.037312306 -0.53791821 0.49630654 65280
0.041932419 -0.53941119 0.49768341 65280
0.047406808 -0.54006004 0.49828237 65280
0.052805785 -0.53980041 0.49804285 65280
0.058046415 -0.53811294 0.49648616 65280
0.062529713 -0.53871369 0.49588358 65280
0.067056768 -0.53970355 0.49564046 65280
0.072011977 -0.53930581 0.49585193 65280
0.077830568 -0.53891361 0.4956829 65280
0.083193041 -0.5391832 0.49516207 65280
0.086751886 -0.53971684 0.49450082 65280
0.10744371 -0.53971684 0.49450082 65280
0.11243294 -0.53951526 0.49489114 65280
0.11745315 -0.53891361 0.4956829 65280
0.12282658 -0.53772378 0.4961268 65280
0.12751245 -0.53850251 0.49684533 65280
0.1321159 -0.53889239 0.49720424 65280
0.13752942 -0.53889251 0.49720436 65280
0.14280392 -0.53837293 0.49672547 65280
0.14763863 -0.53831595 0.49609512 65280
0.1529471 -0.53943837 0.49578142 65280
0.1575119 -0.53954446 0.49572504 65280
0.16119999 -0.53944802 0.49502128 65280
0.25408563 -0.53971684 0.49450082 65280
0.25768423 -0.53971684 0.49450082 65280
0.2612828 -0.53971684 0.49450082 65280
0.27297816 -0.53971684 0.49450082 65280
0.30896392 -0.53971684 0.49450082 65280
0.3125625 -0.53971684 0.49450082 65280
0.31706071 -0.53971684 0.49450082 65280
-0.2475431 -0.5348562 0.50161552 65280
-0.24211395 -0.5348562 0.50161552 65280
-0.23758966 -0.5348562 0.50161552 65280
-0.23306535 -0.5348562 0.50161552 65280
-0.22763617 -0.5348562 0.50161552 65280
-0.21768275 -0.5348562 0.50161552 65280
-0.21315844 -0.5348562 0.50161552 65280
-0.20736735 -0.53549534 0.50127566 65280
-0.20230013 -0.5348562 0.50161552 65280
-0.19687098 -0.5348562 0.50161552 65280
-0.19234669 -0.5348562 0.50161552 65280
-0.18773262 -0.53539824 0.50094986 65280
-0.18217467 -0.5350129 0.50058842 65280
-0.17735571 -0.5341121 0.49974608 65280
-0.1730528 -0.53475565 0.50034767 65280
-0.16767353 -0.53488445 0.50046796 65280
-0.16229121 -0.5350129 0.50058842 65280
-0.157056 -0.53458095 0.49994981 65280
-0.15258992 -0.53379893 0.49968603 65280
-0.14758205 -0.53411269 0.49974585 65280
-0.14230464 -0.5346272 0.50022721 65280
-0.13735309 -0.53519833 0.5005275 65280
-0.13274717 -0.53379846 0.49968624 65280
-0.1275176 -0.53321123 0.49890369 65280
-0.12214225 -0.53413665 0.49860039 65280
-0.117164 -0.53380799 0.49922824 65280
-0.11277239 -0.53318053 0.49910876 65280
-0.10798488 -0.5345906 0.49835899 65280
-0.10262203 -0.5347805 0.49780506 65280
-0.097746536 -0.53533846 0.4973951 65280
-0.093176879 -0.53495085 0.49703497 65280
-0.08786384 -0.53546768 0.49751514 65280
-0.082440861 -0.53454417 0.49781743 65280
-0.077305183 -0.53423858 0.49840462 65280
-0.072642654 -0.53531826 0.49853843 65280
-0.068086267 -0.53493094 0.49817804 65280
-0.06272506 -0.53531826 0.49853843 65280
-0.057273149 -0.53334039 0.49902377 65280
-0.05196755 -0.53436995 0.49998653 65280
-0.047500681 -0.53488445 0.5004679 65280
-0.042910982 -0.53398383 0.49962556 65280
-0.037454043 -0.53334033 0.4990238 65280
-0.032046445 -0.53413606 0.49860072 65280
-0.027522817 -0.53454417 0.49781743 65280
-0.023922287 -0.53533846 0.4973951 65280
-0.011767317 -0.53494132 0.49760628 65280
-0.0068172254 -0.53467298 0.49793771 65280
-0.0026149761 -0.53493816 0.49779671 65280
0.00038607154 -0.53495085 0.49703497 65280
0.017479304 -0.53495085 0.49703497 65280
0.020178238 -0.53495085 0.49703497 65280
0.039970402 -0.53495085 0.49703497 65280
0.042716037 -0.53473741 0.49799782 65280
0.047019541 -0.53443205 0.49858493 65280
0.052280702 -0.53509021 0.49809346 65280
0.056163993 -0.53495085 0.49703497 65280
0.12903515 -0.53495085 0.49703497 65280
0.13263372 -0.53495085 0.49703497 65280
0.13713194 -0.53495085 0.49703497 65280
-0.39051086 -0.5300625 0.50416434 65280
-0.38689139 -0.5300625 0.50416434 65280
-0.38188228 -0.53034055 0.50363904 65280
-0.37815848 -0.53027105 0.50377035 65280
-0.37241364 -0.5300625 0.50416434 65280
-0.36879423 -0.5300625 0.50416434 65280
-0.32536098 -0.5300625 0.50416434 65280
-0.32264638 -0.5300625 0.50416434 65280
-0.31781694 -0.53035223 0.50325525 65280
-0.31269342 -0.53041023 0.50307339 65280
-0.30779794 -0.52995872 0.50327575 65280
-0.30183464 -0.5300625 0.50416434 65280
-0.28554717 -0.5300625 0.50416434 65280
-0.2818262 -0.53067052 0.50355792 65280
-0.27754587 -0.52993792 0.50309807 65280
-0.27255148 -0.53022504 0.50313419 65280
-0.2672573 -0.53047961 0.50337636 65280
-0.26223123 -0.53071576 0.50336403 65280
-0.25759265 -0.52978516 0.50295269 65280
-0.25233659 -0.53060091 0.50260401 65280
-0.2472333 -0.53071272 0.50211978 65280
-0.24280238 -0.52987444 0.50162166 65280
-0.23774992 -0.53079802 0.50131953 65280
-0.23231874 -0.52995956 0.50170231 65280
-0.22732809 -0.53061676 0.50202924 65280
-0.22258803 -0.53041816 0.50213492 65280
-0.21773177 -0.52993083 0.50196928 65280
-0.21251033 -0.53004467 0.50178283 65280
-0.20696466 -0.52970368 0.50146085 65280
-0.2021358 -0.53123885 0.50150037 65280
-0.19768946 -0.5306133 0.50137985 65280
-0.19266339 -0.53004467 0.50178283 65280
-0.18710071 -0.52961832 0.50138038 65280
-0.18250577 -0.5293622 0.50113904 65280
-0.17825785 -0.53001034 0.50034142 65280
-0.17208305 -0.53036392 0.5003233 65280
-0.16745272 -0.53001034 0.50034142 65280
-0.1626849 -0.53095317 0.50029308 65280
-0.15896666 -0.53056896 0.49993107 65280
-0.14189376 -0.53069705 0.50005174 65280
-0.13745835 -0.53095317 0.50029308 65280
-0.13366087 -0.53018481 0.49956912 65280
-0.1138687 -0.53018481 0.49956912 65280
-0.05269292 -0.53018481 0.49956912 65280
-0.048194695 -0.53018481 0.49956912 65280
-0.043696478 -0.53018481 0.49956912 65280
-0.39175525 -0.52690655 0.5047099 65280
-0.38748804 -0.52601933 0.50386035 65280
-0.38279292 -0.52576548 0.50361776 65280
-0.37810215 -0.52551162 0.50337517 65280
-0.3728753 -0.52576548 0.50361776 65280
-0.36728993 -0.52636868 0.5040251 65280
-0.36223868 -0.5263747 0.50499272 65280
-0.35742018 -0.52531099 0.50555825 65280
-0.35270393 -0.52608889 0.50571096 65280
-0.34707761 -0.52686673 0.50586355 65280
-0.34250236 -0.52499974 0.5054971 65280
-0.33800027 -0.52562213 0.50561929 65280
-0.33227995 -0.52662772 0.50523567 65280
-0.32736713 -0.52652633 0.50434572 65280
-0.32230848 -0.52563858 0.50349647 65280
-0.31741804 -0.52500516 0.50288939 65280
-0.31314316 -0.52618027 0.50283092 65280
-0.30717632 -0.52559268 0.50286013 65280
-0.30218822 -0.52615106 0.50381726 65280
-0.29720744 -0.5260005 0.50502986 65280
-0.29274249 -0.52678168 0.50509989 65280
-0.28763938 -0.52652639 0.50434577 65280
-0.2825118 -0.5253855 0.50325346 65280
-0.27710527 -0.52618027 0.50283092 65280
-0.27260053 -0.52618027 0.50283092 65280
-0.26754895 -0.52559274 0.50286019 65280
-0.26256293 -0.5251317 0.50301093 65280
-0.25728443 -0.52538478 0.50325388 65280
-0.25259677 -0.52500516 0.50288939 65280
-0.24881528 -0.52541876 0.50210327 65280
-0.2407185 -0.52700746 0.50125855 65280
-0.23711991 -0.52700746 0.50125855 65280
-0.23172204 -0.52541876 0.50210327 65280
-0.22812349 -0.52541876 0.50210321 65280
-0.22272561 -0.52541876 0.50210321 65280
-0.21732776 -0.52541876 0.50210321 65280
-0.21282953 -0.52541876 0.50210327 65280
-0.2020338 -0.52700746 0.50125855 65280
-0.19753557 -0.52700746 0.50125855 65280
-0.191376 -0.52579951 0.50246704 65280
-0.18752091 -0.52539682 0.5028699 65280
-0.18314129 -0.52541876 0.50210321 65280
-0.17954271 -0.52700746 0.50125855 65280
-0.39062467 -0.52299827 0.5045228 65280
-0.38736045 -0.52224141 0.50379264 65280
-0.38376188 -0.52224141 0.50379264 65280
-0.37566504 -0.52224141 0.50379264 65280
-0.3720665 -0.52224147 0.50379264 65280
-0.36706716 -0.52241194 0.50455147 65280
-0.36282024 -0.52142131 0.50498372 65280
-0.35851076 -0.52082145 0.50539702 65280
-0.35220677 -0.5216164 0.50497437 65280
-0.34712783 -0.52182555 0.50458014 65280
-0.34164271 -0.52090424 0.5048812 65280
-0.33746874 -0.52140731 0.50536871 65280
-0.33277124 -0.52174187 0.50473785 65280
-0.32777178 -0.52222264 0.5043689 65280
-0.32258609 -0.52224141 0.50379264 65280
-0.30121207 -0.52261984 0.50415772 65280
-0.29726851 -0.5216164 0.50497437 65280
-0.29198042 -0.52168608 0.50484294 65280
-0.28815877 -0.52222264 0.5043689 65280
-0.26051065 -0.52224141 0.50379264 65280
-0.25781173 -0.52224141 0.50379264 65280
-0.10320987 -0.56605452 0.48842484 65280
-0.092324086 -0.56699193 0.4881151 65280
-0.088923968 -0.56928825 0.48897058 65280
0.16875368 -0.56767082 0.48869798 65280
0.17253932 -0.56705511 0.48760968 65280
0.17734545 -0.56684494 0.48687196 65280
0.18256041 -0.56718075 0.48805249 65280
0.18795519 -0.56794167 0.48893142 65280
0.19268483 -0.56701791 0.4879126 65280
0.24255852 -0.5678733 0.48887351 65280
-0.10532878 -0.56285065 0.49239352 65280
-0.10217202 -0.56330115 0.48988876 65280
-0.097687118 -0.56324017 0.48935497 65280
-0.093802169 -0.56405312 0.49062154 65280
0.16375321 -0.5631187 0.49187347 65280
0.16730717 -0.56318843 0.48978686 65280
0.17255984 -0.56443036 0.48702329 65280
0.1834338 -0.56283009 0.48787412 65280
0.18763623 -0.5628379 0.48877615 65280
0.19258688 -0.56363344 0.4878245 65280
0.2396159 -0.56443036 0.48702329 65280
0.24303305 -0.56364793 0.48970443 65280
0.24674264 -0.56365454 0.49139979 65280
-0.10532878 -0.56124127 0.49324927 65280
-0.102193 -0.56016946 0.49306399 65280
-0.098402306 -0.56059754 0.49359155 65280
0.097908594 -0.55802244 0.49496073 65280
0.10246549 -0.55802244 0.49496073 65280
0.11340203 -0.55802244 0.49496073 65280
0.11522479 -0.55802244 0.49496073 65280
0.16274679 -0.55915219 0.49322742 65280
0.16645521 -0.55883253 0.49113232 65280
0.24341556 -0.55923223 0.49035338 65280
0.24769533 -0.55910063 0.49249977 65280
0.25275278 -0.55943167 0.49392825 65280
0.25648844 -0.55882716 0.49453285 65280
0.29203218 -0.55802244 0.49496073 65280
0.29819772 -0.55923152 0.49375153 65280
0.30253527 -0.55883116 0.4933981 65280
0.30661425 -0.55963182 0.49410498 65280
0.31025976 -0.55802244 0.49496073 65280
0.32848734 -0.55802244 0.49496073 65280
-0.10168327 -0.55641305 0.49581647 65280
0.014061783 -0.55480367 0.49667218 65280
0.017707296 -0.55480367 0.49667218 65280
0.022252699 -0.55453908 0.49643534 65280
0.026821081 -0.55480367 0.49667218 65280
0.058083732 -0.55507553 0.49615008 65280
0.062290046 -0.55494612 0.49565259 65280
0.067304634 -0.55461067 0.49592531 65280
0.072338864 -0.55440676 0.49631691 65280
0.076946884 -0.55480367 0.49667218 65280
0.083326533 -0.55480367 0.49667218 65280
0.088121198 -0.55465323 0.49561962 65280
0.092666626 -0.55354154 0.49462509 65280
0.097054392 -0.55402172 0.49459624 65280
0.10207501 -0.55348951 0.49435076 65280
0.10767683 -0.55428427 0.49506065 65280
0.1122898 -0.55461502 0.49535674 65280
0.11682382 -0.55454886 0.49529743 65280
0.1223706 -0.55494648 0.49565238 65280
0.12748326 -0.55500758 0.49628064 65280
0.15350267 -0.55480367 0.49667218 65280
0.1573768 -0.55497068 0.49590376 65280
0.16215041 -0.55482161 0.49439746 65280
0.1662167 -0.55482918 0.49212831 65280
0.24768935 -0.55414087 0.49346513 65280
0.25248289 -0.55441952 0.49479997 65280
0.25703156 -0.55534911 0.49524951 65280
0.2622779 -0.5549711 0.49590352 65280
0.26795244 -0.55400991 0.49596161 65280
0.27250281 -0.55400991 0.49596161 65280
0.27684742 -0.5549711 0.49590352 65280
0.28251275 -0.55481386 0.49553415 65280
0.2876986 -0.55428433 0.49506062 65280
0.29283324 -0.55402327 0.49433655 65280
0.2974135 -0.55535883 0.4937343 65280
0.30279216 -0.55495906 0.49375808 65280
0.30774355 -0.55516315 0.49470124 65280
0.31239155 -0.55481088 0.49591318 65280
0.31755078 -0.55480367 0.49667218 65280
0.32324302 -0.55480909 0.49610296 65280
0.32675549 -0.55421817 0.49500144 65280
-0.11135181 -0.5502497 0.49871606 65280
-0.10707489 -0.55038679 0.49845445 65280
-0.1024968 -0.55105948 0.49790782 65280
-0.09814287 -0.55069435 0.49786606 65280
-0.092696704 -0.55033755 0.49791422 65280
-0.087038904 -0.55038673 0.49845433 65280
-0.082485273 -0.55038673 0.49845439 65280
-0.077931643 -0.55038673 0.49845433 65280
-0.07246729 -0.55038673 0.49845433 65280
-0.06701804 -0.54971319 0.49900129 65280
-0.062494002 -0.54997545 0.49923939 65280
-0.057937104 -0.54997545 0.49923939 65280
-0.053380214 -0.54997545 0.49923939 65280
-0.030595757 -0.54997545 0.49923939 65280
-0.026475927 -0.5499844 0.49866834 65280
-0.022345297 -0.54959869 0.49774075 65280
-0.01780582 -0.54986143 0.49797863 65280
-0.012722124 -0.55014712 0.49846858 65280
-0.0068900487 -0.54918861 0.49852514 65280
-0.0023403277 -0.54999274 0.49809757 65280
0.0024370276 -0.5503009 0.49750894 65280
0.0076674796 -0.55133659 0.49700543 65280
0.013122182 -0.55120468 0.49688685 65280
0.017669298 -0.55120468 0.49688685 65280
0.021945387 -0.55057919 0.496815 65280
0.027660154 -0.55094171 0.49664918 65280
0.032789722 -0.55143899 0.49732858 65280
0.037124366 -0.55000317 0.4974125 65280
0.042274591 -0.5502556 0.49833542 65280
0.047748599 -0.55038679 0.49845445 65280
0.053161297 -0.54986143 0.49797863 65280
0.057090521 -0.5510695 0.49714744 65280
0.062111605 -0.55015147 0.49593687 65280
0.067541972 -0.55001992 0.49581799 65280
0.072749101 -0.55080724 0.4967584 65280
0.077156276 -0.55144435 0.49687269 65280
0.082119524 -0.55041516 0.4961741 65280
0.086535916 -0.55042434 0.49503666 65280
0.10822227 -0.55002862 0.49468082 65280
0.11286211 -0.55055624 0.49515533 65280
0.11745265 -0.55081999 0.49539256 65280
0.12199086 -0.5500195 0.4958182 65280
0.12791473 -0.55050457 0.49711752 65280
0.13241456 -0.55105948 0.49790782 65280
0.13699977 -0.55038673 0.49845445 65280
0.14264101 -0.55079269 0.49795535 65280
0.14777528 -0.5506224 0.49751103 65280
0.15282963 -0.55112338 0.49704334 65280
0.15697056 -0.55065435 0.49616027 65280
0.16089474 -0.55042434 0.49503666 65280
0.2523022 -0.55002856 0.49468076 65280
0.25798556 -0.55002284 0.49543893 65280
0.26270917 -0.55015182 0.49593663 65280
0.26762393 -0.55033827 0.49587533 65280
0.2726295 -0.55001992 0.49581799 65280
0.2777113 -0.55017996 0.4957329 65280
0.28311172 -0.55002856 0.49468076 65280
0.30848429 -0.55002862 0.49468082 65280
0.31255716 -0.55028665 0.49567622 65280
0.3174735 -0.55067867 0.49641156 65280
0.322449 -0.55065823 0.4957051 65280
-0.22107384 -0.54514724 0.50180662 65280
-0.21702127 -0.54542375 0.50128204 65280
-0.21305326 -0.54532307 0.50103354 65280
-0.20710643 -0.54436731 0.50108868 65280
-0.20183772 -0.5448873 0.5015673 65280
-0.19737799 -0.54514724 0.50180662 65280
-0.19229104 -0.54532307 0.50103354 65280
-0.18721883 -0.54556197 0.50101972 65280
-0.18220949 -0.54556197 0.50101978 65280
-0.1777215 -0.54532301 0.50103348 65280
-0.17304108 -0.54496467 0.50105423 65280
-0.16706316 -0.54436731 0.50108868 65280
-0.16262855 -0.54475725 0.50144762 65280
-0.15796241 -0.54436731 0.50108868 65280
-0.15222481 -0.54532301 0.50103348 65280
-0.14711218 -0.54543161 0.50090027 65280
-0.14286299 -0.54516375 0.50104266 65280
-0.13753448 -0.54496467 0.50105423 65280
-0.13251241 -0.54530203 0.50078052 65280
-0.12734751 -0.54517609 0.50043213 65280
-0.1224695 -0.54597443 0.50023413 65280
-0.11748805 -0.54501963 0.50028878 65280
-0.11240628 -0.54651761 0.49956772 65280
-0.10711543 -0.54568583 0.49857551 65280
-0.1029871 -0.54482019 0.49801648 65280
-0.097616993 -0.54601252 0.49794874 65280
-0.092083037 -0.54548955 0.49747181 65280
-0.087634854 -0.54601252 0.49794874 65280
-0.082614593 -0.54541636 0.49798262 65280
-0.077670448 -0.54534245 0.49849379 65280
-0.072259791 -0.54560351 0.49873251 65280
-0.067241207 -0.54631293 0.49914816 65280
-0.062877551 -0.54599148 0.49931899 65280
-0.05782615 -0.54651719 0.49956793 65280
-0.052147813 -0.54598033 0.49994791 65280
-0.047168922 -0.54627454 0.50021613 65280
-0.042413317 -0.54717028 0.50016463 65280
-0.037588418 -0.5466584 0.50019401 65280
-0.03235798 -0.54651761 0.49956772 65280
-0.02721403 -0.54568577 0.49857554 65280
-0.022265207 -0.54522806 0.49723333 65280
-0.017734392 -0.545228 0.49723327 65280
-0.0119516 -0.54537201 0.49828932 65280
-0.0068801772 -0.54599577 0.49909025 65280
-0.002635461 -0.54547918 0.49823242 65280
0.0012953118 -0.54562032 0.49759099 65280
0.0076381732 -0.54682821 0.49638242 65280
0.013075151 -0.54682821 0.49638242 65280
0.017605968 -0.54682821 0.49638247 65280
0.023042943 -0.54682821 0.49638247 65280
0.027573762 -0.54682821 0.49638242 65280
0.03301074 -0.54682821 0.49638242 65280
0.042556372 -0.54522026 0.49780369 65280
0.047577705 -0.54521251 0.49837422 65280
0.052530684 -0.54522026 0.49780372 65280
0.058383301 -0.54682821 0.49638247 65280
0.074694239 -0.54682821 0.49638247 65280
0.076506563 -0.54682821 0.49638247 65280
0.1272517 -0.54576141 0.49694964 65280
0.13324258 -0.54537243 0.49828902 65280
0.13718069 -0.54574066 0.4984709 65280
0.1418854 -0.54575109 0.49771029 65280
0.14537495 -0.54522806 0.49723333 65280
0.15171808 -0.54682821 0.49638247 65280
-0.38238779 -0.54031909 0.50437379 65280
-0.32223684 -0.54112375 0.50394589 65280
-0.31767994 -0.54192847 0.50351804 65280
-0.31312308 -0.54085553 0.50408852 65280
-0.30947754 -0.54031909 0.50437379 65280
-0.28578171 -0.54031909 0.50437379 65280
-0.28213617 -0.54192847 0.50351804 65280
-0.27849066 -0.54031909 0.50437379 65280
-0.26573136 -0.54192847 0.50351804 65280
-0.26208586 -0.54192847 0.50351804 65280
-0.25697955 -0.54194802 0.50275248 65280
-0.25279111 -0.54234552 0.50273007 65280
-0.24732678 -0.54234552 0.50273007 65280
-0.24219182 -0.54242891 0.50257242 65280
-0.23775211 -0.54195201 0.50259948 65280
-0.2326445 -0.54208624 0.50249028 65280
-0.22712807 -0.54195666 0.50237042 65280
-0.22249831 -0.54176283 0.50219029 65280
-0.21776746 -0.54131061 0.50177014 65280
-0.21216126 -0.54092222 0.50141037 65280
-0.20723204 -0.54149711 0.50170869 65280
-0.2029272 -0.54133081 0.50202358 65280
-0.19786386 -0.54156905 0.50201023 65280
-0.19263342 -0.54134119 0.50156516 65280
-0.18822771 -0.54001617 0.50057077 65280
-0.18291886 -0.54120505 0.50050491 65280
-0.1775582 -0.54146427 0.5007447 65280
-0.17244115 -0.54072052 0.50098908 65280
-0.16761075 -0.540793 0.50129032 65280
-0.16273156 -0.54071015 0.50144768 65280
-0.15796354 -0.5408051 0.5007177 65280
-0.15206499 -0.54120505 0.50050491 65280
-0.14752766 -0.54120505 0.50050491 65280
-0.14258796 -0.54099941 0.50089747 65280
-0.13754641 -0.54040462 0.50093061 65280
-0.13197507 -0.54068667 0.50002557 65280
-0.12828627 -0.54042745 0.49978584 65280
-0.12302605 -0.54280752 0.49965286 65280
-0.11749809 -0.54161751 0.49971932 65280
-0.11296336 -0.54241759 0.49929389 65280
-0.071198009 -0.54202765 0.49893498 65280
-0.067573354 -0.54202765 0.49893498 65280
-0.063042544 -0.54202759 0.49893492 65280
-0.057292826 -0.54185551 0.49970606 65280
-0.052659199 -0.54121691 0.49993232 65280
-0.047672693 -0.54081631 0.50014532 65280
-0.043144174 -0.54185551 0.49970606 65280
-0.038150813 -0.54161751 0.49971938 65280
-0.033163656 -0.54241759 0.49929389 65280
-0.39262217 -0.53728294 0.50530851 65280
-0.38744274 -0.53698874 0.50455886 65280
-0.38220116 -0.536367 0.50420994 65280
-0.37751132 -0.53651369 0.50458491 65280
-0.37265012 -0.53700775 0.50481308 65280
-0.3678546 -0.53728294 0.50530851 65280
-0.36216381 -0.53684413 0.50584388 65280
-0.35686922 -0.53710026 0.50608528 65280
-0.35231233 -0.53710026 0.50608528 65280
-0.33864164 -0.53710026 0.50608528 65280
-0.33202496 -0.53671604 0.50572324 65280
-0.32723671 -0.53713572 0.50493366 65280
-0.32231897 -0.53731018 0.50438797 65280
-0.31790662 -0.53737056 0.50367635 65280
-0.31313547 -0.53649151 0.50382012 65280
-0.30775532 -0.53649509 0.50433064 65280
-0.30329624 -0.53712928 0.50516373 65280
-0.29811388 -0.53633183 0.5053612 65280
-0.29286304 -0.53752077 0.50529528 65280
-0.28755701 -0.53729612 0.50484848 65280
-0.28268519 -0.53705043 0.50400835 65280
-0.27769318 -0.53696942 0.50388968 65280
-0.27219784 -0.5370847 0.50370252 65280
-0.26741686 -0.53761935 0.50386763 65280
-0.26273787 -0.53658438 0.50352812 65280
-0.25753686 -0.53682804 0.50346136 65280
-0.25246754 -0.5378229 0.50298285 65280
-0.24734902 -0.53800011 0.50220907 65280
-0.24281168 -0.53800011 0.50220907 65280
-0.23725235 -0.53774244 0.50196856 65280
-0.23192208 -0.53800011 0.50220907 65280
-0.22738475 -0.53800011 0.50220907 65280
-0.22268732 -0.53681356 0.50227368 65280
-0.21709025 -0.53722709 0.50148743 65280
-0.21255943 -0.53722709 0.50148749 65280
-0.20984095 -0.53722709 0.50148749 65280
-0.20259166 -0.53722709 0.50148743 65280
-0.19715466 -0.53722709 0.50148743 65280
-0.19262385 -0.53722709 0.50148749 65280
-0.39284623 -0.53265923 0.50504881 65280
-0.38763559 -0.53268188 0.50428176 65280
-0.38382423 -0.53242654 0.50404 65280
-0.3774811 -0.53242654 0.50404 65280
-0.37295032 -0.53242654 0.50403994 65280
-0.36736184 -0.53209293 0.5046705 65280
-0.36311743 -0.53315705 0.50591671 65280
-0.35792223 -0.5335393 0.50627971 65280
-0.35246572 -0.5335393 0.50627971 65280
-0.34717456 -0.53379393 0.50652182 65280
-0.3423802 -0.53261 0.50658506 65280
-0.33791491 -0.5335393 0.50627971 65280
-0.33277422 -0.53362364 0.50612158 65280
-0.32799506 -0.53220099 0.50500929 65280
-0.32334441 -0.53280956 0.50440258 65280
-0.30589426 -0.53242654 0.50404 65280
-0.30255866 -0.53293729 0.50452352 65280
-0.29740161 -0.53264707 0.50543284 65280
-0.29226118 -0.53270578 0.50525069 65280
-0.28808087 -0.53220099 0.50500935 65280
-0.28414634 -0.53242654 0.50404 65280
-0.360264 -0.52922618 0.50574166 65280
-0.35754552 -0.52922618 0.50574166 65280
-0.35301471 -0.52922612 0.5057416 65280
-0.34757772 -0.52922612 0.5057416 65280
-0.34395307 -0.52922618 0.50574166 65280
-0.33760995 -0.52922618 0.50574166 65280
-0.33489144 -0.52922618 0.50574166 65280
-0.11158959 -0.57336038 0.49246824 65280
-0.084052667 -0.57336038 0.49246824 65280
0.25740522 -0.57336038 0.49246824 65280
0.31247905 -0.57336038 0.49246824 65280
-0.11158959 -0.57092905 0.49376103 65280
-0.10928609 -0.57091707 0.49036962 65280
-0.087229989 -0.56981111 0.49194872 65280
0.16269304 -0.57023287 0.49267501 65280
0.16612749 -0.57037985 0.49065524 65280
0.24801414 -0.57038367 0.49140823 65280
0.25264382 -0.57023305 0.49235135 65280
0.25722277 -0.57038766 0.49253875 65280
0.26156512 -0.57038891 0.49367064 65280
0.30788958 -0.57011855 0.49419194 65280
0.31236744 -0.57032132 0.493801 65280
0.31706855 -0.57011855 0.49419194 65280
0.33083701 -0.57011855 0.49419194 65280
-0.11148391 -0.56634068 0.49544561 65280
-0.1086178 -0.56510597 0.49391249 65280
-0.091808334 -0.56503558 0.49365869 65280
-0.088251807 -0.56687909 0.49515933 65280
0.01690718 -0.56498814 0.49654227 65280
0.022423446 -0.56525588 0.4967775 65280
0.057275549 -0.5649882 0.49654227 65280
0.062721707 -0.56445289 0.49607182 65280
0.067400426 -0.56525588 0.4967775 65280
0.071955822 -0.5649882 0.49654227 65280
0.076579399 -0.56525588 0.4967775 65280
0.092139132 -0.56498814 0.49654227 65280
0.097918913 -0.56510127 0.49572712 65280
0.10265537 -0.56494075 0.49558598 65280
0.10681941 -0.56552851 0.49625498 65280
0.11232332 -0.5649882 0.49654227 65280
0.11808398 -0.56510127 0.49572712 65280
0.12277963 -0.5647797 0.49544513 65280
0.12697351 -0.56620473 0.49570668 65280
0.13206512 -0.56546032 0.49638557 65280
0.13807853 -0.56525588 0.4967775 65280
0.14266802 -0.56525588 0.4967775 65280
0.14725751 -0.56525588 0.4967775 65280
0.1530008 -0.56542242 0.49600932 65280
0.15798321 -0.56584245 0.49500942 65280
0.16262344 -0.56607449 0.49294448 65280
0.24864122 -0.56526756 0.49224097 65280
0.25253269 -0.56499964 0.49313843 65280
0.25740641 -0.56567121 0.49372512 65280
0.26245758 -0.56589311 0.49505442 65280
0.26724276 -0.566392 0.49594694 65280
0.27245873 -0.56590426 0.49643275 65280
0.27753201 -0.56607133 0.49549448 65280
0.28270417 -0.56607306 0.49521035 65280
0.28745559 -0.56526512 0.49526244 65280
0.29231927 -0.56558603 0.49569589 65280
0.29729918 -0.5656687 0.49523661 65280
0.30265382 -0.56647819 0.49442869 65280
0.30773896 -0.56623584 0.49444431 65280
0.31224117 -0.56572795 0.49458492 65280
0.3175858 -0.56616151 0.49528921 65280
0.32303426 -0.56627238 0.49567071 65280
0.32786974 -0.56598359 0.49513209 65280
0.33036706 -0.56769007 0.49435058 65280
-0.11648505 -0.56147373 0.49878848 65280
-0.1123087 -0.56182539 0.49718583 65280
-0.10743772 -0.5606572 0.49566311 65280
-0.10228507 -0.55922365 0.49545455 65280
-0.097006977 -0.55962408 0.49561918 65280
-0.09322679 -0.56157118 0.49647149 65280
-0.088905714 -0.56228822 0.49797788 65280
-0.071202107 -0.56201404 0.49850121 65280
-0.068448409 -0.56201404 0.49850121 65280
-0.062023122 -0.5603931 0.49936306 65280
-0.057433635 -0.5612036 0.49893215 65280
-0.054679945 -0.56201404 0.49850121 65280
-0.045500971 -0.5603931 0.49936306 65280
-0.042747278 -0.5612036 0.49893215 65280
-0.038157791 -0.56201404 0.49850121 65280
-0.032650407 -0.56201404 0.49850121 65280
-0.027104465 -0.5612157 0.49779308 65280
-0.022553533 -0.56201404 0.49850121 65280
-0.017046148 -0.56201404 0.49850121 65280
-0.010620865 -0.5603931 0.49936306 65280
-0.0078671724 -0.5603931 0.49936306 65280
-0.0023597877 -0.56201404 0.49850121 65280
0.0022296999 -0.56201404 0.49850121 65280
0.0081905378 -0.56202012 0.49793166 65280
0.012304359 -0.56182599 0.49718553 65280
0.016867133 -0.56122589 0.49665511 65280
0.022370793 -0.56149244 0.49689093 65280
0.027517106 -0.56170398 0.497307 65280
0.03160242 -0.56201404 0.49850121 65280
0.038027704 -0.5603931 0.49936306 65280
0.042617191 -0.5603931 0.49936306 65280
0.048124578 -0.56093341 0.49907577 65280
0.052657578 -0.5622257 0.49753916 65280
0.057126313 -0.56109285 0.49653715 65280
0.06255772 -0.56056029 0.49606532 65280
0.068059973 -0.56069332 0.49618334 65280
0.072700679 -0.56122553 0.49665529 65280
0.077350952 -0.56175929 0.49712652 65280
0.082827814 -0.56162584 0.49700874 65280
0.087868296 -0.56090468 0.49659935 65280
0.092182085 -0.56074852 0.49600294 65280
0.096817747 -0.56083012 0.49573293 65280
0.10275865 -0.56123304 0.49551868 65280
0.10787646 -0.56026554 0.49603313 65280
0.11197833 -0.56123042 0.49608642 65280
0.11768053 -0.56026816 0.49557874 65280
0.12283713 -0.56029338 0.49582964 65280
0.12748206 -0.5606268 0.49612418 65280
0.13225771 -0.56149244 0.49689093 65280
0.13798046 -0.56242532 0.49771622 65280
0.14251569 -0.5622251 0.49753952 65280
0.14711806 -0.56229228 0.49759817 65280
0.15243851 -0.5616259 0.49700874 65280
0.15785821 -0.5607726 0.4957636 65280
0.16102374 -0.56123829 0.49438336 65280
0.25411731 -0.56204414 0.4939549 65280
