# .PCD v0.7 - Point Cloud Data file format
VERSION 0.7
FIELDS x y z rgba
SIZE 4 4 4 4
TYPE F F F U
COUNT 1 1 1 1
WIDTH 1180
HEIGHT 1
VIEWPOINT 0 0 0 1 0 0 0
POINTS 1180
DATA ascii
-0.2448709 -0.30844268 0.50677001 65280
-0.23475771 -0.30860204 0.50588506 65280
-0.22533569 -0.30927306 0.50487632 65280
-0.21529233 -0.31026372 0.5041523 65280
-0.2052297 -0.31089669 0.50435919 65280
-0.19469792 -0.31083411 0.50336015 65280
-0.18502408 -0.31119931 0.5036428 65280
-0.17511162 -0.31114462 0.50385374 65280
-0.16480607 -0.31052002 0.50472158 65280
-0.15541731 -0.31026131 0.50478458 65280
-0.14915884 -0.31123903 0.50386018 65280
-0.32309961 -0.30152163 0.50860232 65280
-0.31537944 -0.30116713 0.509314 65280
-0.30729184 -0.30227843 0.5078696 65280
-0.27352667 -0.30256027 0.50734222 65280
-0.26814187 -0.30256027 0.50734222 65280
-0.24275625 -0.30256027 0.50734222 65280
-0.23506366 -0.3025603 0.50734228 65280
-0.31245461 -0.48906225 0.4247129 65280
-0.31116691 -0.48534951 0.42525238 65280
-0.30775043 -0.4802461 0.42936814 65280
-0.30364257 -0.47383845 0.43212792 65280
-0.30526882 -0.41751826 0.45867619 65280
-0.31431553 -0.39571065 0.47404677 65280
-0.092409179 -0.39158395 0.48039374 65280
-0.31859964 -0.38318467 0.47863054 65280
-0.12332564 -0.3831847 0.4848597 65280
-0.11856926 -0.38458458 0.48411536 65280
-0.082238726 -0.39082581 0.48192939 65280
-0.076559179 -0.38703942 0.48054495 65280
-0.066144705 -0.38639894 0.48201811 65280
0.096179359 -0.38286957 0.48446095 65280
0.11113925 -0.38255447 0.48406225 65280
-0.13488668 -0.37595484 0.48700503 65280
-0.12791763 -0.37687767 0.4831166 65280
-0.016222758 -0.37293616 0.48691118 65280
0.055678394 -0.37441438 0.4877432 65280
0.06569425 -0.37579599 0.48425803 65280
0.074775569 -0.38043448 0.48556694 65280
0.084692322 -0.37969166 0.48294175 65280
0.09436661 -0.37920046 0.48131531 65280
0.1046457 -0.37908813 0.47967619 65280
0.11719032 -0.37722418 0.48293233 65280
0.12526062 -0.37541389 0.48502752 65280
0.13526389 -0.37420124 0.48642737 65280
0.14359075 -0.3744027 0.48839664 65280
-0.32624385 -0.36983258 0.48969397 65280
-0.14607675 -0.36787757 0.49186602 65280
-0.01227842 -0.37087721 0.48762846 65280
-0.0051799249 -0.36901954 0.48861623 65280
0.0048573129 -0.3677609 0.4890967 65280
0.017132858 -0.36748332 0.4883005 65280
0.025296792 -0.37024051 0.48902401 65280
0.03507147 -0.37105292 0.48829013 65280
0.045209661 -0.37082672 0.48671156 65280
0.053067386 -0.36934248 0.4839142 65280
0.13645573 -0.36985403 0.48288721 65280
0.1468394 -0.36985251 0.48628563 65280
0.15486586 -0.36857945 0.48888797 65280
0.16465773 -0.36559695 0.49115327 65280
0.17315525 -0.36498627 0.49453598 65280
-0.32711321 -0.35824287 0.49326766 65280
-0.14793935 -0.35748887 0.4964838 65280
0.16752283 -0.36046195 0.49014622 65280
0.17538401 -0.35966298 0.49403158 65280
0.18526845 -0.35802245 0.49710622 65280
0.19420439 -0.3571856 0.49882528 65280
0.20628367 -0.35743737 0.49896151 65280
0.21457553 -0.35751235 0.49813247 65280
0.22501285 -0.35756582 0.49780196 65280
0.2346824 -0.35834184 0.4975765 65280
0.2447298 -0.35775584 0.49870411 65280
0.2556324 -0.35755849 0.49810794 65280
0.26501644 -0.35857895 0.49684918 65280
0.27470651 -0.35747775 0.49693233 65280
0.28228474 -0.35757452 0.49734432 65280
-0.32739526 -0.3492226 0.49984354 65280
-0.28236806 -0.34894148 0.50363338 65280
-0.27555299 -0.34897774 0.50350094 65280
-0.26963064 -0.3487604 0.50429595 65280
-0.25533801 -0.3487604 0.50429595 65280
-0.24739771 -0.3487604 0.50429595 65280
-0.22384292 -0.34913749 0.50358075 65280
-0.21554685 -0.34896779 0.50390255 65280
-0.20403543 -0.34917495 0.50350928 65280
-0.19500118 -0.35016984 0.50217819 65280
-0.1847778 -0.34946308 0.5019145 65280
-0.17511278 -0.34945458 0.502675 65280
-0.16487773 -0.34972584 0.50236696 65280
-0.15565726 -0.3503837 0.50024754 65280
-0.14776465 -0.35040593 0.49436054 65280
0.18547334 -0.35171825 0.49441776 65280
0.19587088 -0.3496041 0.49776506 65280
0.20512852 -0.34945494 0.49840534 65280
0.21493369 -0.34866875 0.49711359 65280
0.22491689 -0.34837478 0.49687088 65280
0.23490156 -0.34881717 0.49750182 65280
0.24511997 -0.34934199 0.4985325 65280
0.2546542 -0.34933773 0.49731272 65280
0.26515514 -0.34833449 0.49674326 65280
0.27475941 -0.34867585 0.4962756 65280
0.28108406 -0.34975722 0.49632335 65280
-0.3255055 -0.34127542 0.50402182 65280
-0.31491968 -0.34203827 0.50553203 65280
-0.30526266 -0.3408851 0.50602949 65280
-0.29475403 -0.34155387 0.50601029 65280
-0.28512195 -0.34214506 0.5045774 65280
-0.27480322 -0.34164026 0.50352246 65280
-0.26514351 -0.34247148 0.50467765 65280
-0.25497699 -0.34210709 0.50461465 65280
-0.24495217 -0.34238708 0.50458497 65280
-0.23495619 -0.3416414 0.50450653 65280
-0.22508477 -0.34150648 0.50346947 65280
-0.21488163 -0.34140489 0.50328046 65280
-0.20478141 -0.34121057 0.5029934 65280
-0.19492269 -0.34050232 0.50195438 65280
-0.18510994 -0.34029216 0.50164551 65280
-0.17499754 -0.34077832 0.50232464 65280
-0.16518264 -0.34056103 0.50199747 65280
-0.15837058 -0.34067121 0.49998951 65280
0.20373344 -0.34222487 0.49757788 65280
0.2351048 -0.34233895 0.49774376 65280
0.24471754 -0.34247991 0.49829161 65280
0.25067139 -0.34222487 0.49757788 65280
0.26631737 -0.34222487 0.49757788 65280
-0.33034411 -0.33172515 0.5042932 65280
-0.32539055 -0.3320373 0.50545311 65280
-0.31536922 -0.33177382 0.5057776 65280
-0.30523396 -0.33169433 0.50569075 65280
-0.29507041 -0.33190948 0.50598335 65280
-0.2849893 -0.33145118 0.5052883 65280
-0.27543166 -0.33204663 0.50412238 65280
-0.26475891 -0.33226377 0.50475001 65280
-0.25570446 -0.33205992 0.50498354 65280
-0.24530488 -0.33293054 0.5046978 65280
-0.23550884 -0.33320779 0.5041278 65280
-0.22440259 -0.33356979 0.50284034 65280
-0.21626681 -0.33346131 0.50306112 65280
-0.20563889 -0.33430716 0.50254279 65280
-0.19680363 -0.33393613 0.50198507 65280
-0.18663374 -0.33393613 0.50198507 65280
-0.17255235 -0.33393613 0.50198507 65280
-0.16707627 -0.33393613 0.50198507 65280
-0.31514597 -0.49564803 0.43261227 65280
-0.31186506 -0.48874578 0.43552727 65280
-0.30984023 -0.48416337 0.43343347 65280
-0.31848046 -0.40552035 0.48374307 65280
-0.32196137 -0.39802447 0.48829496 65280
-0.31775802 -0.40044516 0.481345 65280
-0.10534035 -0.39544824 0.48513445 65280
-0.095736139 -0.39757752 0.48649389 65280
-0.084742777 -0.39773989 0.48844627 65280
-0.32325003 -0.39079261 0.48855379 65280
-0.13201343 -0.38869208 0.49438962 65280
-0.12635238 -0.38914889 0.49112663 65280
-0.11855398 -0.38852379 0.48655108 65280
-0.081180394 -0.39339283 0.48509479 65280
-0.074086137 -0.39296797 0.48742399 65280
-0.065086313 -0.3926779 0.4885895 65280
0.075914562 -0.38775375 0.49217039 65280
0.085216366 -0.38705611 0.4897584 65280
0.095609717 -0.3882277 0.48978266 65280
0.10496041 -0.38743097 0.48769847 65280
0.1149223 -0.38809294 0.49033973 65280
0.12201806 -0.38806415 0.49359095 65280
0.2448891 -0.38926217 0.4940865 65280
0.25053859 -0.38869208 0.49438962 65280
0.2865099 -0.38882494 0.49413013 65280
0.29065722 -0.38909072 0.49361137 65280
-0.32748169 -0.37964678 0.49438566 65280
-0.14078262 -0.38051635 0.49420643 65280
-0.13551961 -0.38334772 0.49270102 65280
-0.12691265 -0.38304067 0.48720136 65280
-0.030273397 -0.38379544 0.49586067 65280
-0.027763337 -0.3825534 0.49425593 65280
-0.013668224 -0.38047719 0.49600697 65280
-0.0052860845 -0.37932202 0.49786168 65280
0.00034634533 -0.38014087 0.49893638 65280
0.018092629 -0.38138157 0.49793684 65280
0.024970191 -0.38121122 0.49696496 65280
0.03424941 -0.37933555 0.49630663 65280
0.045781121 -0.37981239 0.49458072 65280
0.054308232 -0.38211906 0.49477005 65280
0.064338826 -0.38383782 0.49255368 65280
0.075183354 -0.38299036 0.4879832 65280
0.11646055 -0.38304067 0.48720136 65280
0.12583508 -0.38361031 0.49142879 65280
0.13481607 -0.38392997 0.49359071 65280
0.14541164 -0.38271496 0.49430335 65280
0.15493819 -0.380492 0.49502841 65280
0.16456176 -0.38088429 0.49763507 65280
0.17533916 -0.38054639 0.49815443 65280
0.1853825 -0.38113508 0.49701792 65280
0.19482033 -0.381432 0.49669248 65280
0.2051504 -0.38121006 0.49771219 65280
0.21580285 -0.38185501 0.49698308 65280
0.22507808 -0.38268059 0.49652416 65280
0.23508553 -0.38273877 0.4965995 65280
0.24463294 -0.38269219 0.49600023 65280
0.25458089 -0.38251173 0.49585107 65280
0.26497525 -0.38208771 0.49624008 65280
0.27525488 -0.38172132 0.49576414 65280
0.28493989 -0.38195673 0.4946329 65280
0.29042226 -0.38664126 0.49434751 65280
-0.33109137 -0.37299576 0.5004704 65280
-0.32893857 -0.37131345 0.49513575 65280
-0.31279752 -0.37016445 0.50424093 65280
-0.30553389 -0.37016445 0.50424093 65280
-0.2941452 -0.37048113 0.50407255 65280
-0.28517771 -0.37095621 0.50381994 65280
-0.27433777 -0.37227806 0.50270522 65280
-0.26524132 -0.37218878 0.50190634 65280
-0.25563714 -0.37190998 0.50269496 65280
-0.24500348 -0.37158966 0.50348318 65280
-0.23451154 -0.37158966 0.50348318 65280
-0.22644083 -0.37087703 0.50386202 65280
-0.21110646 -0.37016445 0.50424093 65280
-0.2038845 -0.37225282 0.50207889 65280
-0.19498947 -0.37269685 0.5009011 65280
-0.18517551 -0.37206924 0.50176257 65280
-0.1747032 -0.37264103 0.50119829 65280
-0.16493843 -0.37227547 0.50059217 65280
-0.15515625 -0.37288067 0.50160748 65280
-0.14775935 -0.3742446 0.49640861 65280
-0.0036467365 -0.37504476 0.49485064 65280
0.005694909 -0.37661391 0.49779153 65280
0.014489937 -0.37597787 0.49703145 65280
0.021832645 -0.37351519 0.49283245 65280
0.15816219 -0.37355688 0.49375412 65280
0.16577141 -0.37405646 0.49615481 65280
0.17541879 -0.37232178 0.49695048 65280
0.18491617 -0.37181297 0.49693644 65280
0.19496743 -0.37229377 0.49776042 65280
0.20508461 -0.37253627 0.49836013 65280
0.21474089 -0.37232924 0.49780455 65280
0.22493161 -0.37304011 0.49879372 65280
0.23483261 -0.37253198 0.49794203 65280
0.24512151 -0.37214819 0.49770206 65280
0.25495589 -0.37180758 0.4968043 65280
0.2648339 -0.37113035 0.4963811 65280
0.27474108 -0.37181169 0.49692565 65280
0.28442422 -0.37197241 0.49733388 65280
-0.33055392 -0.36705488 0.50346738 65280
-0.32600442 -0.36273718 0.5051921 65280
-0.31477457 -0.36434489 0.50613612 65280
-0.30489928 -0.36414352 0.50563633 65280
-0.29509157 -0.36509818 0.50494307 65280
-0.2849718 -0.36432284 0.50398564 65280
-0.27508986 -0.36408582 0.50284564 65280
-0.26495638 -0.36352646 0.50216728 65280
-0.25497133 -0.36434057 0.50269109 65280
-0.24507943 -0.36471114 0.5038299 65280
-0.23482704 -0.36514318 0.50363559 65280
-0.22496331 -0.3642737 0.50387847 65280
-0.21500638 -0.36477953 0.50505817 65280
-0.20495442 -0.36394241 0.50290579 65280
-0.19506055 -0.36298275 0.50084698 65280
-0.18521294 -0.36349934 0.50194794 65280
-0.17492995 -0.36313283 0.50152117 65280
-0.16483299 -0.363262 0.50123501 65280
-0.15552196 -0.36346304 0.50210804 65280
0.17849687 -0.36478239 0.49690947 65280
0.18534805 -0.36401463 0.49802569 65280
0.19543329 -0.36313736 0.49948314 65280
0.20467071 -0.36321488 0.49947962 65280
0.21517476 -0.36351648 0.49860737 65280
0.22490115 -0.36414349 0.49883473 65280
0.23507099 -0.36432156 0.49780169 65280
0.24510984 -0.36332825 0.4985579 65280
0.25438905 -0.36318403 0.49820253 65280
0.26447865 -0.36448064 0.49729651 65280
0.27538186 -0.36403534 0.49779215 65280
0.28385222 -0.36424625 0.4986507 65280
-0.32506406 -0.35444909 0.50562453 65280
-0.31514555 -0.35411626 0.50652766 65280
-0.30509272 -0.35433522 0.50684857 65280
-0.29490462 -0.35459411 0.50582445 65280
-0.28528696 -0.35448125 0.50430042 65280
-0.2745702 -0.35454613 0.50380838 65280
-0.26491746 -0.35369375 0.50427485 65280
-0.25509858 -0.35402891 0.50407839 65280
-0.24510896 -0.35421312 0.50464141 65280
-0.23513095 -0.35380188 0.50479883 65280
-0.22522953 -0.35506886 0.50377309 65280
-0.21504717 -0.35477298 0.50414526 65280
-0.20542488 -0.35438555 0.50336027 65280
-0.19459505 -0.35579932 0.50196904 65280
-0.18548368 -0.35534567 0.50235182 65280
-0.1750572 -0.35540023 0.50263417 65280
-0.16506043 -0.35537672 0.50257677 65280
-0.15690143 -0.35625362 0.50241506 65280
-0.32336095 -0.34746048 0.50611979 65280
-0.31468484 -0.34801012 0.50598931 65280
-0.30440214 -0.34689069 0.50682247 65280
-0.29546276 -0.34748089 0.50633544 65280
-0.23746455 -0.34792861 0.50587076 65280
-0.31669608 -0.49882597 0.44092691 65280
-0.31269154 -0.49225581 0.44272155 65280
-0.31532416 -0.42846686 0.47890383 65280
-0.32085717 -0.41252688 0.49002203 65280
-0.31866625 -0.40996531 0.48534361 65280
-0.32355446 -0.40307051 0.49297357 65280
-0.11486791 -0.40362805 0.4961881 65280
-0.10528879 -0.40280843 0.49164066 65280
-0.093768448 -0.40177163 0.49121031 65280
-0.085492142 -0.40478528 0.49489331 65280
-0.07791651 -0.40130773 0.49485475 65280
-0.06565547 -0.39965478 0.49535602 65280
0.018394362 -0.40221259 0.49852633 65280
0.027688943 -0.40221259 0.49852633 65280
0.031516124 -0.40221259 0.49852633 65280
0.075552911 -0.40234384 0.49766386 65280
0.08399561 -0.40236408 0.49721882 65280
0.093815692 -0.40208471 0.49836785 65280
0.1020456 -0.40221259 0.49852633 65280
0.12992933 -0.40221259 0.49852633 65280
0.13552457 -0.40178627 0.49799794 65280
0.14528009 -0.40157312 0.49773377 65280
0.15518983 -0.40178627 0.49799794 65280
0.16802257 -0.402751 0.49748498 65280
0.17526853 -0.40263763 0.49593669 65280
0.18495746 -0.40306631 0.49549019 65280
0.19299394 -0.40327415 0.49664056 65280
0.20714764 -0.40211809 0.49789697 65280
0.21552569 -0.40197635 0.49695301 65280
0.22516398 -0.40165666 0.49655676 65280
0.23503649 -0.40176323 0.49668887 65280
0.24524407 -0.40193862 0.49626526 65280
0.25515273 -0.40201327 0.49688202 65280
0.26503664 -0.40261704 0.49774513 65280
0.27447748 -0.40252212 0.49774405 65280
0.28517658 -0.40240017 0.49729395 65280
0.29263762 -0.40293536 0.49587685 65280
-0.33044633 -0.39289758 0.50234663 65280
-0.32701063 -0.39568335 0.49698231 65280
-0.23173921 -0.39352322 0.50314653 65280
-0.22517833 -0.39352322 0.50314653 65280
-0.21522291 -0.39331466 0.50287992 65280
-0.20457928 -0.39360154 0.50219887 65280
-0.19541214 -0.39448407 0.50175476 65280
-0.18595277 -0.3940067 0.50208056 65280
-0.17761195 -0.39352322 0.50314653 65280
-0.16367008 -0.39352322 0.50314653 65280
-0.15273528 -0.39352322 0.50314653 65280
-0.14346825 -0.39417142 0.50157493 65280
-0.13543741 -0.39526862 0.49910402 65280
-0.12548421 -0.39735025 0.49695897 65280
-0.077257149 -0.39503002 0.49215221 65280
-0.064377628 -0.39606351 0.49216899 65280
-0.058207378 -0.39670387 0.49550942 65280
-0.024194404 -0.39442867 0.50099617 65280
-0.015255714 -0.39421543 0.50046194 65280
-0.0049295467 -0.39460573 0.50000089 65280
0.0045661507 -0.39502007 0.49957418 65280
0.014693823 -0.39505723 0.49841055 65280
0.025588049 -0.39515918 0.49834427 65280
0.035285875 -0.39537677 0.49936303 65280
0.045200299 -0.39457271 0.49900812 65280
0.055073477 -0.39428741 0.49871758 65280
0.064992622 -0.39498603 0.49861959 65280
0.074407674 -0.3956463 0.49689844 65280
0.08496771 -0.39617899 0.4961313 65280
0.094552413 -0.39706868 0.4967311 65280
0.10433662 -0.39737672 0.49646446 65280
0.1158372 -0.39562517 0.4960829 65280
0.12563464 -0.39600375 0.49810654 65280
0.13502915 -0.3950499 0.4972761 65280
0.14480565 -0.39454225 0.49672276 65280
0.15511046 -0.3948068 0.49761522 65280
0.16512845 -0.39504051 0.49855447 65280
0.1749101 -0.39400786 0.49698731 65280
0.18463448 -0.39375463 0.49656132 65280
0.19502133 -0.39459005 0.49790749 65280
0.20514284 -0.39483875 0.49833125 65280
0.21488166 -0.39429834 0.49657604 65280
0.22479451 -0.39402181 0.4959034 65280
0.23507345 -0.39403865 0.49600631 65280
0.24472742 -0.39450583 0.49485052 65280
0.25543809 -0.39437816 0.49614811 65280
0.2650196 -0.39469901 0.49701473 65280
0.27496913 -0.39495432 0.49707645 65280
0.284677 -0.3946653 0.49582198 65280
0.29164681 -0.39508575 0.49476528 65280
-0.33067816 -0.38596728 0.50390798 65280
-0.32650962 -0.38497221 0.50454724 65280
-0.3147828 -0.38504282 0.50552386 65280
-0.30503246 -0.38517371 0.50567859 65280
-0.29482341 -0.38571244 0.50473917 65280
-0.28516823 -0.38641986 0.5045073 65280
-0.27538955 -0.38557988 0.50447083 65280
-0.26496306 -0.38631085 0.50445223 65280
-0.25495842 -0.38623106 0.50442976 65280
-0.24489166 -0.385885 0.50439745 65280
-0.23488979 -0.38653612 0.50399482 65280
-0.22497602 -0.38670486 0.50355321 65280
-0.21483786 -0.38636374 0.50307018 65280
-0.20496646 -0.38592231 0.50253177 65280
-0.19476055 -0.38550818 0.50213301 65280
-0.18497531 -0.38614425 0.50282288 65280
-0.17519514 -0.38660717 0.50324243 65280
-0.16496257 -0.38589582 0.50267166 65280
-0.1549761 -0.38615227 0.5025354 65280
-0.14621608 -0.3872965 0.50136065 65280
-0.1354602 -0.38789248 0.4959473 65280
-0.031303514 -0.38730845 0.49908936 65280
-0.023867838 -0.38755259 0.49952579 65280
-0.014917523 -0.38702321 0.49950525 65280
-0.0053307451 -0.38564429 0.49954939 65280
0.0045422572 -0.38488507 0.49969441 65280
0.01403055 -0.38539815 0.49899352 65280
0.025768477 -0.38674051 0.49757922 65280
0.035282608 -0.38693711 0.4999159 65280
0.044138912 -0.38672146 0.49883518 65280
0.054211862 -0.38702548 0.4970555 65280
0.063400201 -0.38789248 0.4959473 65280
0.1393875 -0.38789248 0.4959473 65280
0.14508621 -0.38799676 0.49608058 65280
0.15452966 -0.3874687 0.49702215 65280
0.16548504 -0.38601634 0.49837956 65280
0.17474046 -0.38561708 0.49834943 65280
0.18488924 -0.38685295 0.49738997 65280
0.19485784 -0.38720357 0.4972845 65280
0.20519637 -0.38637388 0.49788746 65280
0.21424606 -0.38711706 0.49714381 65280
0.22539869 -0.38789248 0.4959473 65280
0.23396745 -0.38789248 0.4959473 65280
0.25842762 -0.38820532 0.49634728 65280
0.26550785 -0.38804609 0.49651283 65280
0.27453202 -0.38810107 0.496214 65280
-0.33160645 -0.37632868 0.50531948 65280
-0.32498983 -0.37623847 0.50560302 65280
-0.31487149 -0.37591693 0.5045436 65280
-0.30509949 -0.37675786 0.50498223 65280
-0.29520392 -0.37669569 0.50458527 65280
-0.28534672 -0.37704915 0.50438571 65280
-0.27541819 -0.37740713 0.50341016 65280
-0.26452553 -0.37805197 0.5030964 65280
-0.25491548 -0.37711725 0.50351036 65280
-0.24497889 -0.376793 0.50361592 65280
-0.23490919 -0.37680858 0.50374347 65280
-0.22468589 -0.37616679 0.50444722 65280
-0.21528076 -0.37553799 0.50462413 65280
-0.20604958 -0.37684876 0.50270933 65280
-0.19411807 -0.37813142 0.50194639 65280
-0.18485823 -0.37753257 0.50266927 65280
-0.17616297 -0.37815234 0.50225884 65280
-0.16559218 -0.37840793 0.50193423 65280
-0.15563411 -0.3779192 0.50181645 65280
-0.32525188 -0.36890268 0.50645626 65280
-0.31896144 -0.36933491 0.50581455 65280
-0.31835616 -0.50293869 0.44610193 65280
-0.32098639 -0.43842387 0.49003193 65280
-0.31915173 -0.43321174 0.48619658 65280
0.22864023 -0.43361837 0.49315333 65280
0.23505902 -0.433779 0.49231288 65280
0.24197058 -0.43435401 0.49276221 65280
-0.32183573 -0.42595881 0.49297881 65280
-0.31968287 -0.42528859 0.48852175 65280
-0.054630261 -0.42479086 0.49784702 65280
-0.048798226 -0.42479086 0.49784702 65280
-0.024636919 -0.42479086 0.49784702 65280
-0.013805988 -0.42479086 0.49784702 65280
-0.0079739485 -0.42479086 0.49784702 65280
0.01597907 -0.42534256 0.49755359 65280
0.024852101 -0.42537934 0.49753404 65280
0.035342202 -0.42507553 0.49755397 65280
0.044734865 -0.42594087 0.49683568 65280
0.053321354 -0.42532703 0.4972221 65280
0.066176265 -0.42515868 0.49765146 65280
0.074802428 -0.4263339 0.49643326 65280
0.083399579 -0.4258976 0.4968054 65280
0.090337567 -0.42479086 0.49784702 65280
0.10589101 -0.42605013 0.49644119 65280
0.11491871 -0.42630541 0.49581057 65280
0.12505074 -0.42593113 0.49563617 65280
0.13414204 -0.42618054 0.49591601 65280
0.14439856 -0.42524946 0.49713123 65280
0.15440743 -0.42564505 0.4973056 65280
0.16528794 -0.42507553 0.49755397 65280
0.17559685 -0.42613655 0.49581763 65280
0.18493061 -0.42646575 0.49480447 65280
0.19484571 -0.42689842 0.49567768 65280
0.20544027 -0.42630136 0.49547571 65280
0.21512014 -0.42676869 0.49507821 65280
0.22561759 -0.42728966 0.49477077 65280
0.23506045 -0.4265143 0.49362716 65280
0.2449962 -0.42697659 0.49470264 65280
0.25461712 -0.425982 0.49527881 65280
0.26511425 -0.42552245 0.49619967 65280
0.27507368 -0.42703545 0.49563417 65280
0.28500298 -0.42723668 0.49517363 65280
0.29516277 -0.42681545 0.49460828 65280
0.300291 -0.43214712 0.49393561 65280
-0.32306635 -0.41624969 0.49831113 65280
-0.31540576 -0.41596329 0.50254065 65280
-0.30528876 -0.41653621 0.50195289 65280
-0.29600528 -0.41617349 0.50242889 65280
-0.28469115 -0.41598752 0.50220418 65280
-0.27519912 -0.41637349 0.50175631 65280
-0.26510623 -0.41621071 0.50155967 65280
-0.25542834 -0.41696513 0.50134182 65280
-0.24825397 -0.41655183 0.50222778 65280
-0.21405664 -0.41715813 0.50181818 65280
-0.20524207 -0.41838592 0.50091702 65280
-0.19564618 -0.41815725 0.50113821 65280
-0.18520281 -0.41826513 0.5007714 65280
-0.17553702 -0.41717482 0.50093383 65280
-0.16519485 -0.41681921 0.50101602 65280
-0.15519795 -0.41678292 0.50097239 65280
-0.14485945 -0.41720313 0.50074887 65280
-0.13480766 -0.41745964 0.49960127 65280
-0.12504846 -0.41757691 0.49937981 65280
-0.11549953 -0.41775632 0.50016123 65280
-0.10553149 -0.41704032 0.50101429 65280
-0.094812356 -0.41736561 0.50082427 65280
-0.085240394 -0.41811889 0.49955383 65280
-0.07527747 -0.41790435 0.4997718 65280
-0.065096885 -0.41818103 0.4996272 65280
-0.055313423 -0.41851419 0.49923369 65280
-0.045892444 -0.41839975 0.50011247 65280
-0.035250857 -0.41792557 0.49997428 65280
-0.025400765 -0.41851446 0.49923354 65280
-0.015436762 -0.41865972 0.4994081 65280
-0.0054567065 -0.41825932 0.49892867 65280
0.0045114807 -0.41855267 0.4992761 65280
0.01444797 -0.41760415 0.49814463 65280
0.024358893 -0.41691127 0.49731761 65280
0.03434512 -0.41754803 0.4980799 65280
0.044322867 -0.41783845 0.49842888 65280
0.054564249 -0.41753805 0.49833545 65280
0.064837284 -0.41818762 0.49884102 65280
0.075042479 -0.41734532 0.49774012 65280
0.085110307 -0.41771096 0.49838525 65280
0.09492588 -0.41833892 0.49923262 65280
0.10514691 -0.41755942 0.49780077 65280
0.11539301 -0.41685444 0.4972533 65280
0.12506783 -0.41703463 0.49645436 65280
0.13534732 -0.4173111 0.49678227 65280
0.14527018 -0.41732773 0.49799657 65280
0.15504932 -0.41742209 0.49792677 65280
0.16487451 -0.41771808 0.49685812 65280
0.17497757 -0.41658497 0.49591014 65280
0.18500629 -0.41675606 0.49579233 65280
0.19490403 -0.41750976 0.49660233 65280
0.205153 -0.41668525 0.49646065 65280
0.21519697 -0.41685346 0.49710405 65280
0.22508785 -0.41718355 0.49764472 65280
0.23491518 -0.41698205 0.49740559 65280
0.24508186 -0.41706467 0.49760845 65280
0.2549184 -0.41661906 0.49680474 65280
0.26515207 -0.41726699 0.4964866 65280
0.2752938 -0.4169687 0.49683881 65280
0.28482556 -0.41664752 0.49679717 65280
0.29393765 -0.41678959 0.49564162 65280
-0.3236098 -0.4086566 0.50255603 65280
-0.31473434 -0.40994146 0.50420094 65280
-0.30454379 -0.40959722 0.50359547 65280
-0.29491451 -0.40963179 0.50370681 65280
-0.28479564 -0.40845501 0.50248301 65280
-0.27479309 -0.40783685 0.5016076 65280
-0.2648679 -0.40783679 0.50160784 65280
-0.25482157 -0.40818837 0.50190592 65280
-0.24507615 -0.40921915 0.50344419 65280
-0.23497334 -0.40939522 0.50341177 65280
-0.22527164 -0.40953475 0.50369364 65280
-0.2151722 -0.40904015 0.50305051 65280
-0.20481007 -0.40817642 0.5020588 65280
-0.19480047 -0.40833807 0.502222 65280
-0.18487316 -0.40835583 0.50224411 65280
-0.17488222 -0.40822929 0.50209129 65280
-0.16486882 -0.4080326 0.50184977 65280
-0.15485911 -0.40810132 0.50203753 65280
-0.14492886 -0.40793586 0.50157923 65280
-0.13479909 -0.40758094 0.50001359 65280
-0.12509376 -0.40769011 0.50014424 65280
-0.11631238 -0.40874237 0.49951383 65280
-0.10410395 -0.40919471 0.49689031 65280
-0.094329178 -0.40962717 0.49741539 65280
-0.08352381 -0.41000277 0.49914101 65280
-0.074558392 -0.40920335 0.50036919 65280
-0.064714938 -0.40891835 0.50108522 65280
-0.05494472 -0.40864676 0.50223374 65280
-0.045245133 -0.40881512 0.50281775 65280
-0.03518676 -0.40753168 0.50123519 65280
-0.025348267 -0.40751562 0.50083673 65280
-0.015371357 -0.40759814 0.50113142 65280
-0.0056329235 -0.40761676 0.50053716 65280
0.0044780863 -0.40756005 0.4999868 65280
0.014214781 -0.40703416 0.49916509 65280
0.024248004 -0.40668413 0.49864835 65280
0.035214406 -0.40701914 0.49907619 65280
0.045543928 -0.40763849 0.49991596 65280
0.055642843 -0.4076243 0.50006592 65280
0.065456487 -0.40708762 0.49940738 65280
0.074914224 -0.40769061 0.49810529 65280
0.085603446 -0.40802258 0.49814278 65280
0.095280483 -0.4076269 0.49904525 65280
0.10509787 -0.40693024 0.49884945 65280
0.11482618 -0.4068079 0.49906543 65280
0.12471143 -0.40705973 0.49827904 65280
0.1346869 -0.40759745 0.49789184 65280
0.14502598 -0.40741038 0.49847096 65280
0.15504059 -0.40717557 0.4982397 65280
0.1647767 -0.40776688 0.49776733 65280
0.17502289 -0.40942121 0.49665666 65280
0.18532608 -0.40962291 0.49602771 65280
0.19640277 -0.40826276 0.49736866 65280
0.20495982 -0.40732682 0.49821818 65280
0.21508239 -0.40785152 0.4977932 65280
0.22495502 -0.40785152 0.4977932 65280
0.23482762 -0.40785152 0.49779323 65280
0.24436225 -0.40840092 0.4979541 65280
0.25524771 -0.40821564 0.49810925 65280
0.26511931 -0.40862715 0.49751681 65280
0.27490419 -0.40812889 0.49764574 65280
0.28492597 -0.40808094 0.49767122 65280
0.29302406 -0.40955868 0.4966968 65280
-0.33125213 -0.39581645 0.50607997 65280
-0.32547557 -0.3993794 0.50618464 65280
-0.3149676 -0.39941293 0.50681031 65280
-0.30496091 -0.39890271 0.50624031 65280
-0.29491624 -0.3991397 0.50504214 65280
-0.28485033 -0.3984437 0.50416249 65280
-0.27520788 -0.39856392 0.50431722 65280
-0.26484036 -0.39828581 0.50404739 65280
-0.25463736 -0.39837578 0.50407737 65280
-0.24499354 -0.39877552 0.50458211 65280
-0.23513392 -0.39858329 0.5038538 65280
-0.22517845 -0.39849994 0.50385761 65280
-0.21508564 -0.39896214 0.50351071 65280
-0.20517184 -0.39877203 0.50238252 65280
-0.19463108 -0.39986056 0.50204206 65280
-0.18408787 -0.39867213 0.50225675 65280
-0.17465051 -0.39789042 0.50308961 65280
-0.16512223 -0.3979795 0.50339371 65280
-0.15549015 -0.39835644 0.50347096 65280
-0.14631307 -0.39903784 0.50261271 65280
-0.13579911 -0.40128529 0.50031376 65280
-0.053713601 -0.4031536 0.50552934 65280
-0.044993997 -0.40223289 0.50617707 65280
-0.03436714 -0.39838457 0.50346118 65280
-0.026078919 -0.3995747 0.50158429 65280
-0.014985073 -0.39993119 0.50112379 65280
-0.0060146917 -0.40057459 0.50067151 65280
0.0036381558 -0.40140152 0.50009018 65280
0.038958959 -0.40140152 0.50009018 65280
0.045694552 -0.40140152 0.50009018 65280
0.055387232 -0.40140152 0.50009018 65280
0.063601375 -0.40140152 0.50009018 65280
0.10877915 -0.40140152 0.50009018 65280
0.11452904 -0.40140152 0.50009018 65280
0.12027894 -0.40140152 0.50009018 65280
-0.33090308 -0.39248985 0.50709373 65280
-0.32525414 -0.39060137 0.50715411 65280
-0.31511435 -0.39088044 0.50664264 65280
-0.30525014 -0.39120927 0.50664204 65280
-0.29467577 -0.39216009 0.50534379 65280
-0.28432614 -0.39249113 0.50482798 65280
-0.27452663 -0.39215234 0.50521404 65280
-0.26555094 -0.39249113 0.50482798 65280
-0.25510725 -0.39269835 0.50471777 65280
-0.24556749 -0.39228407 0.50506389 65280
-0.23785754 -0.39269835 0.50471777 65280
-0.033325471 -0.39269835 0.50471777 65280
-0.32593605 -0.51936859 0.45435452 65280
-0.32407245 -0.5128324 0.4612276 65280
-0.32353422 -0.44824123 0.49245682 65280
0.047699671 -0.44592285 0.49718159 65280
0.054977126 -0.44639832 0.49736026 65280
0.066037394 -0.44600525 0.49692193 65280
0.074969396 -0.44600525 0.49692193 65280
0.085695744 -0.44569355 0.49692595 65280
0.09571474 -0.44705737 0.49690863 65280
0.10436364 -0.44678459 0.49691206 65280
0.11411738 -0.4466854 0.49691328 65280
0.12446693 -0.44600528 0.49692199 65280
0.13531049 -0.44678465 0.49691212 65280
0.14406586 -0.44642091 0.49691668 65280
0.15098438 -0.44638139 0.49769282 65280
0.16875431 -0.44638139 0.49769282 65280
0.17555739 -0.44683141 0.49662974 65280
0.1859066 -0.44817844 0.49611956 65280
0.19601209 -0.44875991 0.49542871 65280
0.2051003 -0.44910845 0.49459109 65280
0.21446662 -0.44903004 0.49515191 65280
0.22505453 -0.44891328 0.49506629 65280
0.23459816 -0.4483481 0.49427408 65280
0.24422878 -0.4483636 0.49431071 65280
0.25273314 -0.44738269 0.49635139 65280
0.26621321 -0.44699493 0.49673736 65280
0.27579078 -0.44817764 0.49507216 65280
0.28516749 -0.44879925 0.49400622 65280
0.29524931 -0.44882002 0.49427253 65280
0.3026439 -0.44912595 0.49427733 65280
-0.32455572 -0.43809521 0.49824783 65280
-0.27196926 -0.43768913 0.50193697 65280
-0.26589844 -0.43828782 0.50120336 65280
-0.25440183 -0.43820274 0.50141227 65280
-0.24656975 -0.4371461 0.50215024 65280
-0.22201346 -0.43707871 0.50207281 65280
-0.21435159 -0.43904817 0.50036484 65280
-0.20489061 -0.4396145 0.49996948 65280
-0.19498236 -0.43965593 0.49986967 65280
-0.18543305 -0.43904889 0.50015688 65280
-0.17455031 -0.43804151 0.50108886 65280
-0.1643499 -0.4396725 0.50020283 65280
-0.15473914 -0.43975854 0.50028139 65280
-0.14556406 -0.4396635 0.50035864 65280
-0.1352665 -0.43831852 0.5009889 65280
-0.12477412 -0.43893567 0.50023597 65280
-0.11520009 -0.43901205 0.49928302 65280
-0.10469842 -0.43914443 0.49893582 65280
-0.095526479 -0.43901002 0.49999422 65280
-0.084732242 -0.43895721 0.50088519 65280
-0.074427478 -0.43968397 0.49914312 65280
-0.064593568 -0.43979573 0.49892926 65280
-0.054430369 -0.4394564 0.49854353 65280
-0.044317488 -0.43951285 0.49860787 65280
-0.034456488 -0.43934929 0.49940512 65280
-0.02497947 -0.43963671 0.49999535 65280
-0.015364797 -0.43974632 0.49921289 65280
-0.0059085581 -0.43976635 0.4994303 65280
0.0045818943 -0.43935123 0.49966899 65280
0.014996887 -0.43925297 0.49865168 65280
0.024625121 -0.43937394 0.49820226 65280
0.034932293 -0.43959737 0.49870443 65280
0.044969287 -0.43956685 0.49742764 65280
0.055087987 -0.43967915 0.49755657 65280
0.065132655 -0.43931568 0.49714595 65280
0.07503292 -0.43815976 0.49583519 65280
0.08514598 -0.43838525 0.49609277 65280
0.095069505 -0.43894732 0.49626571 65280
0.10525206 -0.43822706 0.4959127 65280
0.11516488 -0.43806857 0.49590325 65280
0.12522325 -0.43839765 0.49594617 65280
0.13522618 -0.43823075 0.49583521 65280
0.14504062 -0.43928134 0.49710542 65280
0.15479404 -0.43974754 0.49763343 65280
0.16506007 -0.44017786 0.49812216 65280
0.17481275 -0.43885499 0.49631494 65280
0.18499205 -0.43976176 0.49518418 65280
0.19527511 -0.4393433 0.4951877 65280
0.20506886 -0.43888134 0.4954201 65280
0.214902 -0.43955296 0.49518579 65280
0.22487079 -0.43939716 0.49461097 65280
0.23460186 -0.44001138 0.49326497 65280
0.24537702 -0.43940055 0.49388832 65280
0.25482887 -0.43901908 0.49653175 65280
0.26533458 -0.4389801 0.49636328 65280
0.27510166 -0.43894652 0.49449658 65280
0.28521433 -0.4387514 0.49404818 65280
0.29522413 -0.43894464 0.49426562 65280
0.30130699 -0.43951011 0.49398461 65280
-0.32337961 -0.43034285 0.50219995 65280
-0.31525958 -0.43015856 0.50340629 65280
-0.30470118 -0.42906576 0.50270253 65280
-0.29519427 -0.42957908 0.50358671 65280
-0.28483585 -0.430374 0.50411779 65280
-0.27469236 -0.43098354 0.50304848 65280
-0.26482281 -0.43104112 0.50162119 65280
-0.25534269 -0.43046021 0.5010618 65280
-0.24505354 -0.43041682 0.50213164 65280
-0.23530953 -0.43127233 0.50391424 65280
-0.22503686 -0.43097818 0.50276822 65280
-0.21502158 -0.42983633 0.50026089 65280
-0.2048763 -0.42983025 0.49938905 65280
-0.19480929 -0.42973661 0.49948126 65280
-0.18471842 -0.43014687 0.49978834 65280
-0.17485614 -0.4299852 0.50092494 65280
-0.16493459 -0.43023759 0.50061369 65280
-0.1550052 -0.43041891 0.50064325 65280
-0.1448452 -0.43017834 0.50036204 65280
-0.13479666 -0.43022144 0.50058997 65280
-0.12478929 -0.43081796 0.49968028 65280
-0.11474611 -0.42960581 0.49907386 65280
-0.10476749 -0.42902339 0.49931368 65280
-0.0947145 -0.43000734 0.49967226 65280
-0.084818684 -0.4305371 0.49943906 65280
-0.075048029 -0.43016094 0.49909231 65280
-0.065274879 -0.42967018 0.49861133 65280
-0.055676837 -0.42987356 0.49792871 65280
-0.045210395 -0.42944521 0.49843019 65280
-0.035883293 -0.4296065 0.49913031 65280
-0.025707237 -0.43047178 0.49889532 65280
-0.015807386 -0.4303295 0.49851766 65280
-0.0052249171 -0.4303475 0.49875164 65280
0.0045466372 -0.43010342 0.49902397 65280
0.014051692 -0.43046489 0.49797028 65280
0.024452623 -0.43065774 0.49767217 65280
0.034350082 -0.43037987 0.49775821 65280
0.044335939 -0.43116817 0.49680838 65280
0.055311006 -0.4305169 0.49763376 65280
0.064487912 -0.42970377 0.49789184 65280
0.07385394 -0.43123308 0.49618334 65280
0.085802458 -0.43051291 0.49684304 65280
0.094932906 -0.42912966 0.49772689 65280
0.10322791 -0.43051422 0.49659696 65280
0.11473951 -0.43157452 0.49575016 65280
0.12412234 -0.43123567 0.4957146 65280
0.1360058 -0.43099424 0.49618456 65280
0.14493226 -0.43051204 0.4970071 65280
0.15510939 -0.43087357 0.4972775 65280
0.16497916 -0.43074661 0.49818081 65280
0.1733613 -0.4311437 0.4963567 65280
0.18477206 -0.43282342 0.4947086 65280
0.19483729 -0.43244457 0.49509883 65280
0.20269203 -0.43118995 0.49580365 65280
0.21564679 -0.43282342 0.4947086 65280
0.2223224 -0.43282342 0.4947086 65280
0.24902487 -0.43282342 0.4947086 65280
0.25586185 -0.43161944 0.49580175 65280
0.26508644 -0.43095005 0.4962709 65280
0.2748929 -0.43257782 0.49483916 65280
0.28490633 -0.43282342 0.4947086 65280
0.29325083 -0.43282342 0.4947086 65280
-0.32236734 -0.42203829 0.50280273 65280
-0.31503418 -0.42137519 0.50264901 65280
-0.30477247 -0.42180407 0.50188887 65280
-0.29481229 -0.42159787 0.50276119 65280
-0.28532407 -0.42190799 0.50310105 65280
-0.27503347 -0.42235219 0.50254124 65280
-0.26496816 -0.42201367 0.50198841 65280
-0.25441459 -0.4223623 0.5015775 65280
-0.244554 -0.42085761 0.50285071 65280
-0.23484033 -0.42129061 0.50365394 65280
-0.22504358 -0.42107725 0.50347096 65280
-0.21631625 -0.42120102 0.50153542 65280
-0.20575161 -0.42324531 0.49980134 65280
-0.19490373 -0.42250854 0.50019312 65280
-0.18521529 -0.42310974 0.50006229 65280
-0.17420559 -0.42231518 0.50097543 65280
-0.1649916 -0.4221018 0.50097549 65280
-0.15499051 -0.4221566 0.50104082 65280
-0.1461169 -0.42203847 0.50058454 65280
-0.13899544 -0.42250854 0.50019312 65280
-0.12480974 -0.42398208 0.49940962 65280
-0.11563078 -0.42324531 0.49980134 65280
-0.10532806 -0.42219877 0.50097549 65280
-0.096332274 -0.42233053 0.50074077 65280
-0.085590489 -0.42398208 0.49940962 65280
-0.075577058 -0.42398208 0.49940962 65280
-0.067232534 -0.42398208 0.49940962 65280
-0.043450646 -0.42287692 0.49999723 65280
-0.034688901 -0.42361367 0.49960548 65280
0.095485657 -0.42398208 0.49940962 65280
-0.330484 -0.52812141 0.45989373 65280
-0.33028668 -0.52903128 0.4628076 65280
-0.32737252 -0.52265036 0.46251953 65280
-0.3260729 -0.51749921 0.46327645 65280
0.22763374 -0.47791547 0.49225149 65280
0.23192988 -0.4779155 0.49225149 65280
0.27875766 -0.47753617 0.49245316 65280
0.28494254 -0.47800493 0.49175084 65280
0.2942175 -0.47785321 0.49183151 65280
0.30281594 -0.47753617 0.49245316 65280
-0.10617518 -0.46843237 0.49729377 65280
-0.051184777 -0.46843237 0.49729374 65280
-0.045170203 -0.46843237 0.49729374 65280
-0.038296402 -0.46843237 0.49729374 65280
-0.012949264 -0.46881169 0.49709207 65280
-0.0079371156 -0.46893811 0.49702483 65280
0.017123615 -0.46881169 0.49709207 65280
0.023567803 -0.46843237 0.49729374 65280
0.047626108 -0.46843237 0.49729374 65280
0.054890465 -0.46912202 0.49692702 65280
0.064810604 -0.46843237 0.49729374 65280
0.075980529 -0.46893811 0.49702483 65280
0.082424715 -0.46881169 0.49709207 65280
0.095456302 -0.46868521 0.4971593 65280
0.10472551 -0.47063932 0.49612027 65280
0.11503622 -0.46925998 0.49685371 65280
0.12659667 -0.47105312 0.49590027 65280
0.1352322 -0.47134811 0.49555472 65280
0.14546651 -0.47111011 0.49530363 65280
0.15496297 -0.4705044 0.49586847 65280
0.16448072 -0.47050148 0.49619374 65280
0.17437993 -0.47066391 0.49575871 65280
0.18567708 -0.47092611 0.49525994 65280
0.19499348 -0.47183782 0.49453175 65280
0.20384139 -0.47063413 0.49587137 65280
0.21618198 -0.470411 0.4957698 65280
0.22529319 -0.47127208 0.49315336 65280
0.23500498 -0.47088498 0.49285322 65280
0.24468598 -0.47124764 0.49460766 65280
0.25535661 -0.47141212 0.49457678 65280
0.26517394 -0.47122508 0.49438062 65280
0.27537832 -0.47181532 0.49389386 65280
0.28514847 -0.47136152 0.49279857 65280
0.2949824 -0.47102126 0.4929986 65280
0.3044886 -0.47181857 0.49392506 65280
-0.27114639 -0.46084586 0.50132757 65280
-0.26599103 -0.46084586 0.50132757 65280
-0.2436512 -0.46084586 0.50132757 65280
-0.23849584 -0.46084586 0.50132757 65280
-0.21185987 -0.46084586 0.50132757 65280
-0.20498605 -0.46084583 0.50132757 65280
-0.19444522 -0.46191978 0.50053 65280
-0.18474391 -0.46206462 0.50004256 65280
-0.1757824 -0.46163979 0.5002259 65280
-0.16539951 -0.46142966 0.50073403 65280
-0.15494172 -0.46174112 0.499845 65280
-0.14440598 -0.46185964 0.49971569 65280
-0.13480464 -0.46164858 0.50005132 65280
-0.12473119 -0.46168423 0.50067586 65280
-0.11498544 -0.46254903 0.49915373 65280
-0.10504935 -0.46270967 0.49844894 65280
-0.096099876 -0.46279609 0.4995895 65280
-0.088990681 -0.46084586 0.50132757 65280
-0.074072942 -0.46136481 0.50079995 65280
-0.064667732 -0.46259606 0.49906754 65280
-0.055354487 -0.46282727 0.49857512 65280
-0.045060534 -0.46275732 0.49849898 65280
-0.035056785 -0.46303791 0.49915096 65280
-0.024347987 -0.46271324 0.49942866 65280
-0.015064277 -0.46281421 0.4985595 65280
-0.0056301551 -0.46285152 0.49860013 65280
0.0047842278 -0.4624635 0.4999283 65280
0.014921244 -0.46226525 0.49796802 65280
0.025228094 -0.46278128 0.49852401 65280
0.035552483 -0.46253824 0.49948403 65280
0.045587633 -0.46201438 0.49814737 65280
0.05466266 -0.46285737 0.4971692 65280
0.064567938 -0.46214977 0.49784064 65280
0.074829467 -0.4620775 0.4977656 65280
0.085138336 -0.46228987 0.49799269 65280
0.095467038 -0.46203375 0.49748075 65280
0.10520563 -0.46253091 0.4969973 65280
0.11457734 -0.46231014 0.49702537 65280
0.12492334 -0.46255642 0.49692044 65280
0.1347905 -0.46269768 0.49704239 65280
0.1448019 -0.46235448 0.49667454 65280
0.15474722 -0.46233845 0.49757472 65280
0.16519123 -0.46259433 0.49824238 65280
0.17510365 -0.4624508 0.4969506 65280
0.18501294 -0.46275014 0.49629614 65280
0.19503988 -0.46208376 0.49534631 65280
0.20501406 -0.46187326 0.4951185 65280
0.21508646 -0.46233809 0.49553514 65280
0.22501627 -0.46071234 0.49373716 65280
0.23493645 -0.46034539 0.49348447 65280
0.24489433 -0.46167046 0.49507004 65280
0.25540453 -0.4621228 0.49593556 65280
0.2650083 -0.46239877 0.49615413 65280
0.27494505 -0.46217602 0.49544838 65280
0.28454977 -0.46065933 0.49374661 65280
0.29499093 -0.46062577 0.49386829 65280
0.30390754 -0.46133813 0.49421903 65280
-0.32380652 -0.45407051 0.50206327 65280
-0.31482217 -0.45457065 0.50432456 65280
-0.30492049 -0.45430988 0.50480294 65280
-0.29445919 -0.45416322 0.50407863 65280
-0.28491628 -0.4539558 0.50303841 65280
-0.27529579 -0.45413941 0.50218207 65280
-0.26462856 -0.45444748 0.50222445 65280
-0.25472954 -0.45401588 0.50279713 65280
-0.24494775 -0.45410931 0.50271106 65280
-0.23578489 -0.45444226 0.50363541 65280
-0.22526677 -0.45363021 0.50379568 65280
-0.21493287 -0.45413375 0.50169408 65280
-0.20486264 -0.45412642 0.50134647 65280
-0.19489737 -0.45336837 0.50077319 65280
-0.18475609 -0.45304519 0.50015217 65280
-0.17482324 -0.45356128 0.50055337 65280
-0.16511872 -0.45355904 0.50063127 65280
-0.15517913 -0.45278448 0.49995095 65280
-0.14531386 -0.45278007 0.50003159 65280
-0.13537243 -0.45336717 0.5005095 65280
-0.12507144 -0.45316088 0.50027955 65280
-0.11472121 -0.4527207 0.49979633 65280
-0.1046581 -0.45291519 0.49984241 65280
-0.094604403 -0.45336491 0.50066531 65280
-0.084714703 -0.45492828 0.50196594 65280
-0.075120673 -0.45308137 0.50046438 65280
-0.06526573 -0.45265207 0.49971929 65280
-0.055046741 -0.45272106 0.49979597 65280
-0.044800062 -0.45255825 0.49961838 65280
-0.034604896 -0.45297581 0.50007582 65280
-0.02436633 -0.45288277 0.4999744 65280
-0.014953894 -0.45192134 0.49891502 65280
-0.0055925949 -0.45228201 0.49931228 65280
0.0046370765 -0.45355284 0.50071269 65280
0.014835709 -0.45212018 0.49913391 65280
0.025054252 -0.45209798 0.49910811 65280
0.03527962 -0.45223728 0.49926051 65280
0.045111056 -0.45155323 0.49796301 65280
0.055505358 -0.45250514 0.49710643 65280
0.065152973 -0.45173556 0.49754256 65280
0.074827276 -0.45231915 0.49771768 65280
0.084486455 -0.45199895 0.49777317 65280
0.094441526 -0.4525004 0.49735999 65280
0.10476129 -0.45290294 0.49705642 65280
0.11550882 -0.45294964 0.49695796 65280
0.12523338 -0.45181549 0.49741316 65280
0.13524123 -0.4525733 0.49744049 65280
0.14571425 -0.45216346 0.49731505 65280
0.15537015 -0.45143017 0.49828029 65280
0.16474201 -0.45151752 0.498117 65280
0.1741569 -0.45236492 0.497091 65280
0.1844629 -0.45346981 0.4963679 65280
0.19383912 -0.45367572 0.49543226 65280
0.20460892 -0.45455205 0.49448097 65280
0.21572296 -0.45451289 0.49540785 65280
0.22417696 -0.45420861 0.49491525 65280
0.23596607 -0.45405319 0.49474621 65280
0.24608056 -0.45416325 0.49502754 65280
0.25579935 -0.45231515 0.49714273 65280
0.26447374 -0.45265323 0.49736381 65280
0.27420375 -0.45411557 0.49612877 65280
0.28427303 -0.45455205 0.49448097 65280
0.29529041 -0.45455205 0.49448097 65280
0.30291784 -0.45455205 0.49448097 65280
-0.32353529 -0.44331709 0.50323904 65280
-0.31504318 -0.44455063 0.50542831 65280
-0.30520481 -0.44524136 0.50663137 65280
-0.29514712 -0.44485033 0.5058279 65280
-0.28487518 -0.44334269 0.50430036 65280
-0.27508631 -0.44281977 0.50246507 65280
-0.26540998 -0.4441829 0.50140983 65280
-0.25520861 -0.44341326 0.50178784 65280
-0.24468347 -0.44310668 0.50295311 65280
-0.23495717 -0.44344097 0.50431526 65280
-0.22539431 -0.44300121 0.50338012 65280
-0.21525072 -0.44470662 0.50092381 65280
-0.20504272 -0.44550979 0.50042135 65280
-0.19526677 -0.44531712 0.50031793 65280
-0.18502592 -0.44477701 0.50052774 65280
-0.1755714 -0.44402987 0.50089926 65280
-0.16549602 -0.44513994 0.50053704 65280
-0.15507056 -0.44507343 0.50021774 65280
-0.14393906 -0.44464085 0.50035483 65280
-0.1346869 -0.44405028 0.50109881 65280
-0.12509301 -0.44477791 0.50050843 65280
-0.11547048 -0.44519246 0.50017828 65280
-0.10634807 -0.44538528 0.50003457 65280
-0.095115535 -0.4449051 0.50067204 65280
-0.085542239 -0.44462579 0.50137669 65280
-0.075971134 -0.4455409 0.49983856 65280
-0.064893082 -0.44557258 0.49925542 65280
-0.054767251 -0.44591534 0.49963948 65280
-0.04455331 -0.44557258 0.49925542 65280
-0.034006871 -0.44501692 0.49975675 65280
-0.024622345 -0.44532853 0.50010592 65280
-0.016101841 -0.44514495 0.49948278 65280
-0.0047219982 -0.44522607 0.49969137 65280
0.0046070889 -0.44545266 0.50035739 65280
0.013925565 -0.44528413 0.4995504 65280
0.025788408 -0.44557256 0.49925542 65280
0.035110805 -0.44557258 0.49925542 65280
-0.32337773 -0.43659312 0.50402987 65280
-0.31480369 -0.43647999 0.50465631 65280
-0.30520043 -0.43651649 0.50520319 65280
-0.29501489 -0.43651649 0.50520319 65280
-0.28546098 -0.43618065 0.50481552 65280
-0.2793082 -0.43659312 0.50402987 65280
-0.23439121 -0.43659312 0.50402987 65280
-0.22845876 -0.43659312 0.50402987 65280
-0.33426017 -0.5371806 0.46821457 65280
-0.33045834 -0.52734816 0.46993166 65280
-0.32922339 -0.52600002 0.4697991 65280
-0.021432262 -0.49094382 0.49664989 65280
0.025669958 -0.49094382 0.49664989 65280
0.031775802 -0.49094382 0.49664983 65280
0.057943702 -0.49094382 0.49664983 65280
0.065266639 -0.49130231 0.49595597 65280
0.073861837 -0.49095425 0.49632087 65280
0.084688589 -0.49145049 0.49586579 65280
0.094711587 -0.49133986 0.49609962 65280
0.1046098 -0.49094382 0.49664989 65280
0.12545455 -0.49127907 0.49630985 65280
0.13616832 -0.49259907 0.49560806 65280
0.14542623 -0.492448 0.49471766 65280
0.15476146 -0.49329111 0.49413601 65280
0.16472983 -0.49310023 0.49383411 65280
0.17479512 -0.49291474 0.49404469 65280
0.18457127 -0.49332154 0.49498126 65280
0.19501953 -0.49265516 0.49471048 65280
0.20483686 -0.49257392 0.49493381 65280
0.21442121 -0.4914735 0.49586505 65280
0.22606915 -0.49214914 0.49431017 65280
0.23498617 -0.49292302 0.49375701 65280
0.2443537 -0.49227697 0.49514842 65280
0.25596169 -0.49139404 0.49608701 65280
0.26549283 -0.49297982 0.49443471 65280
0.27455616 -0.49298918 0.49451691 65280
0.28535038 -0.49242049 0.49366248 65280
0.29518104 -0.49285766 0.49282765 65280
0.30520242 -0.4935866 0.49293602 65280
0.31260124 -0.49406779 0.49347878 65280
-0.22379737 -0.48324221 0.50074494 65280
-0.20024626 -0.48324221 0.50074494 65280
-0.19418286 -0.48347592 0.50029707 65280
-0.18491767 -0.48405406 0.49931395 65280
-0.17494528 -0.48396891 0.49922591 65280
-0.16474465 -0.48368841 0.49988997 65280
-0.15446651 -0.48428327 0.49912551 65280
-0.14486715 -0.48487383 0.49835262 65280
-0.13454989 -0.48455662 0.49848878 65280
-0.12496056 -0.48450249 0.49843252 65280
-0.11536261 -0.48440623 0.49833262 65280
-0.1050052 -0.48479897 0.49873731 65280
-0.094590038 -0.48498011 0.49892417 65280
-0.084778279 -0.48434234 0.49916902 65280
-0.075335078 -0.48440585 0.49833283 65280
-0.065201499 -0.48415822 0.49840456 65280
-0.054657657 -0.48467734 0.49845532 65280
-0.045443747 -0.48375285 0.49846002 65280
-0.03497456 -0.48418605 0.49882731 65280
-0.02460791 -0.4848091 0.49788937 65280
-0.014548105 -0.48452929 0.49709225 65280
-0.0046929372 -0.48430592 0.49682888 65280
0.0044316719 -0.48450536 0.49776614 65280
0.015326079 -0.48414275 0.49781966 65280
0.025575953 -0.48410231 0.49665534 65280
0.035345934 -0.48459846 0.49667764 65280
0.044682074 -0.4843902 0.49711418 65280
0.054806489 -0.48458987 0.49658701 65280
0.065410294 -0.48424459 0.495776 65280
0.074976154 -0.48400512 0.49620292 65280
0.084689468 -0.48401481 0.49514306 65280
0.094868876 -0.48412383 0.49565133 65280
0.10518015 -0.48446485 0.4961555 65280
0.11528978 -0.48435313 0.49727541 65280
0.12474856 -0.4845044 0.49617273 65280
0.13489933 -0.48500642 0.49519849 65280
0.14494234 -0.48419785 0.49453625 65280
0.15506952 -0.48373923 0.49423191 65280
0.16490108 -0.48323935 0.49363869 65280
0.17488877 -0.4844459 0.49452606 65280
0.18529828 -0.48446649 0.49503273 65280
0.19511682 -0.48376566 0.49400669 65280
0.20481621 -0.48472071 0.49525425 65280
0.21532375 -0.48427826 0.49541196 65280
0.22466628 -0.48374593 0.49339843 65280
0.23544249 -0.48324206 0.49302295 65280
0.2447826 -0.48430103 0.49492681 65280
0.25524366 -0.48403221 0.49509752 65280
0.26482084 -0.48368719 0.49401498 65280
0.27512851 -0.48366821 0.49383631 65280
0.28492177 -0.48395002 0.49215746 65280
0.29555506 -0.48370609 0.49206701 65280
0.30516976 -0.4831596 0.49286082 65280
0.31120905 -0.48435456 0.49368161 65280
-0.33176309 -0.4759919 0.50217313 65280
-0.32491928 -0.47530448 0.50318563 65280
-0.31507099 -0.47463411 0.50387484 65280
-0.30472696 -0.47419792 0.503555 65280
-0.29469141 -0.47408718 0.50399476 65280
-0.28435239 -0.475896 0.50276333 65280
-0.27481502 -0.4757157 0.50208527 65280
-0.26474023 -0.47533783 0.50274926 65280
-0.25482038 -0.4746542 0.50315946 65280
-0.24444021 -0.4764317 0.50199807 65280
-0.23485975 -0.47678459 0.50220573 65280
-0.22532287 -0.47696704 0.50219411 65280
-0.21521138 -0.47696903 0.5022074 65280
-0.20470634 -0.47628835 0.50158632 65280
-0.19491398 -0.47599369 0.50026405 65280
-0.18515471 -0.47571149 0.50013494 65280
-0.17507063 -0.47516727 0.49956435 65280
-0.16506656 -0.47560906 0.50019521 65280
-0.15488383 -0.47557324 0.49982369 65280
-0.1450002 -0.47480929 0.49918839 65280
-0.13542777 -0.47504061 0.49959889 65280
-0.12518089 -0.47511807 0.49951497 65280
-0.11492199 -0.47454712 0.49865338 65280
-0.10485889 -0.47454888 0.49835402 65280
-0.095159709 -0.47472528 0.499181 65280
-0.085367925 -0.47595364 0.50055867 65280
-0.074933372 -0.47492808 0.49931404 65280
-0.064727172 -0.47419032 0.49827707 65280
-0.0554263 -0.47378004 0.49819651 65280
-0.04539362 -0.47455785 0.49771765 65280
-0.034805875 -0.47429642 0.49830133 65280
-0.024685061 -0.47407109 0.49841073 65280
-0.015312811 -0.47398341 0.4972252 65280
-0.0052158074 -0.47377765 0.4968527 65280
0.0046865963 -0.47371218 0.4980351 65280
0.014703835 -0.4737795 0.49745625 65280
0.025596427 -0.47370628 0.49704853 65280
0.034685019 -0.47374773 0.49729913 65280
