# .PCD v0.7 - Point Cloud Data file format
VERSION 0.7
FIELDS x y z rgba
SIZE 4 4 4 4
TYPE F F F U
COUNT 1 1 1 1
WIDTH 1105
HEIGHT 1
VIEWPOINT 0 0 0 1 0 0 0
POINTS 1105
DATA ascii
0.36505115 -0.31175297 0.48412976 16711680
0.35539573 -0.31187555 0.48448998 16711680
0.34506142 -0.31209284 0.48465332 16711680
0.33465016 -0.31213146 0.48435742 16711680
0.32499462 -0.31197286 0.48483026 16711680
0.31510732 -0.31197956 0.48458803 16711680
0.3050977 -0.3113946 0.4840326 16711680
0.294655 -0.31099415 0.48375189 16711680
0.28469744 -0.3107824 0.48361138 16711680
0.27532932 -0.31112152 0.484341 16711680
0.2648057 -0.31161317 0.48441398 16711680
0.25506359 -0.31142178 0.48366904 16711680
0.24528244 -0.31051895 0.48258519 16711680
0.23632723 -0.31053415 0.47871906 16711680
0.22999312 -0.30887869 0.47508931 16711680
0.10700732 -0.30960763 0.47666484 16711680
0.096130133 -0.30953416 0.47431293 16711680
-0.088403344 -0.31176615 0.47531301 16711680
-0.094833687 -0.31179309 0.480555 16711680
-0.10402827 -0.3121056 0.48449403 16711680
-0.11375467 -0.31251359 0.48527086 16711680
-0.12225267 -0.3126781 0.48536575 16711680
0.39463443 -0.31900871 0.48627594 16711680
0.38499761 -0.31880844 0.48655522 16711680
0.37497255 -0.31935018 0.48586965 16711680
0.36502925 -0.31995481 0.48535979 16711680
0.35477507 -0.31966367 0.48546103 16711680
0.34487557 -0.31962863 0.485634 16711680
0.33484122 -0.31980646 0.48548952 16711680
0.32494837 -0.31931156 0.48594788 16711680
0.31501874 -0.31963748 0.48569331 16711680
0.30502459 -0.31946397 0.48583853 16711680
0.29492831 -0.31929985 0.48618266 16711680
0.28487229 -0.31877843 0.48641041 16711680
0.27486011 -0.31854263 0.48711064 16711680
0.26467368 -0.31889853 0.48650885 16711680
0.25477016 -0.31965375 0.48549631 16711680
0.24663417 -0.32053417 0.48409241 16711680
0.23894894 -0.31845495 0.47830871 16711680
-0.09660849 -0.32088125 0.48184147 16711680
-0.10506839 -0.32013327 0.48505113 16711680
-0.11503167 -0.3192192 0.48606995 16711680
-0.12476754 -0.31902254 0.48661941 16711680
-0.13458581 -0.31965002 0.48765174 16711680
-0.14477548 -0.3197014 0.4883725 16711680
-0.15504216 -0.31973612 0.48798659 16711680
-0.16499123 -0.31942517 0.48731902 16711680
-0.17504476 -0.31949249 0.48837617 16711680
-0.18522732 -0.3197481 0.48853409 16711680
-0.1950949 -0.31883541 0.48750028 16711680
-0.20459192 -0.31875396 0.48754218 16711680
-0.21497758 -0.31965077 0.48827016 16711680
-0.22560219 -0.32011276 0.48825863 16711680
-0.23462181 -0.31986299 0.48818877 16711680
-0.24065723 -0.32015672 0.48910618 16711680
0.39345995 -0.32969773 0.48779315 16711680
0.38488546 -0.33000833 0.48778763 16711680
0.3753227 -0.33020657 0.4873434 16711680
0.36504734 -0.32993314 0.48688614 16711680
0.35506666 -0.33000323 0.48790541 16711680
0.34488019 -0.33002335 0.48779321 16711680
0.33517861 -0.32976097 0.48713294 16711680
0.32490641 -0.32966024 0.48684359 16711680
0.31486145 -0.32998046 0.48660401 16711680
0.3050884 -0.32954124 0.48660266 16711680
0.2950666 -0.32968879 0.48747733 16711680
0.28507465 -0.32954192 0.48786634 16711680
0.27500853 -0.32949516 0.48817918 16711680
0.26524293 -0.32967618 0.48755819 16711680
0.25520426 -0.32955265 0.48679975 16711680
0.24813139 -0.32897174 0.4861607 16711680
-0.099864751 -0.32809791 0.48387608 16711680
-0.10656062 -0.3296282 0.48601398 16711680
-0.11513355 -0.33043748 0.48723939 16711680
-0.1253006 -0.32937759 0.48851937 16711680
-0.13526987 -0.32892221 0.48916164 16711680
-0.14512865 -0.32856762 0.48967505 16711680
-0.15500852 -0.32886195 0.48957819 16711680
-0.16474169 -0.32943413 0.48849589 16711680
-0.17484142 -0.32883897 0.48942244 16711680
-0.18482882 -0.3283166 0.48969653 16711680
-0.19501585 -0.32908764 0.48928303 16711680
-0.20491423 -0.32940859 0.488428 16711680
-0.21503596 -0.32922992 0.48901767 16711680
-0.22471519 -0.32936937 0.48858717 16711680
-0.23472635 -0.3289263 0.4889504 16711680
0.39244902 -0.33636323 0.48864815 16711680
0.38529098 -0.33636323 0.48864815 16711680
0.37813297 -0.33636329 0.48864809 16711680
0.3532328 -0.33636323 0.48864815 16711680
0.34679669 -0.33636323 0.48864815 16711680
0.28444225 -0.33636329 0.48864809 16711680
0.27473912 -0.33636323 0.48864815 16711680
0.26917174 -0.33636329 0.48864809 16711680
-0.1094088 -0.33636332 0.48864809 16711680
-0.11640385 -0.33676419 0.48898944 16711680
-0.12500116 -0.33763495 0.49006739 16711680
-0.13480754 -0.33804983 0.49054852 16711680
-0.14510012 -0.33724108 0.49040735 16711680
-0.15464509 -0.33686325 0.49011523 16711680
-0.16511853 -0.33703607 0.48952001 16711680
-0.17506528 -0.3368971 0.48952022 16711680
-0.18563668 -0.33708423 0.48997855 16711680
-0.19466996 -0.33719018 0.48995692 16711680
-0.20493682 -0.33744892 0.48968136 16711680
-0.21495529 -0.33729306 0.48974094 16711680
-0.22498278 -0.33738384 0.48975831 16711680
-0.23399495 -0.33771962 0.49041802 16711680
0.02026655 -0.27566987 0.47208199 16711680
0.013952982 -0.27485701 0.46944761 16711680
0.0047531761 -0.27131206 0.46975836 16711680
-0.0047197416 -0.27295917 0.46949816 16711680
-0.015006516 -0.27426231 0.47192913 16711680
-0.023447219 -0.27523214 0.47226223 16711680
-0.031542871 -0.27216798 0.47352418 16711680
-0.044069599 -0.27483732 0.47298688 16711680
0.045423456 -0.28277227 0.4777222 16711680
0.035012946 -0.2834971 0.47418153 16711680
0.025837159 -0.27811131 0.47448125 16711680
0.018784469 -0.27775133 0.46981961 16711680
-0.016632844 -0.27853185 0.46897119 16711680
-0.02687778 -0.27817827 0.46935552 16711680
-0.035403851 -0.27775139 0.46981955 16711680
-0.04598273 -0.27927965 0.47049814 16711680
-0.055376474 -0.27948862 0.47229573 16711680
-0.063795477 -0.28185454 0.47541392 16711680
-0.070088044 -0.28211129 0.47926494 16711680
0.40272912 -0.29073739 0.48345155 16711680
0.39573273 -0.29084471 0.48361439 16711680
0.38612747 -0.29063407 0.48418561 16711680
0.3227447 -0.29063407 0.48418561 16711680
0.3134501 -0.29063401 0.48418564 16711680
0.3037608 -0.29065558 0.48330984 16711680
0.29452306 -0.29020035 0.482447 16711680
0.28514013 -0.29011145 0.48199233 16711680
0.2753078 -0.2905629 0.4826676 16711680
0.26596332 -0.2908316 0.48365033 16711680
0.25459504 -0.29065391 0.48354769 16711680
0.24535498 -0.29071096 0.48311388 16711680
0.23541637 -0.29043514 0.48291609 16711680
0.22416939 -0.29133496 0.48276201 16711680
0.2162078 -0.29122791 0.48004562 16711680
0.20469569 -0.29221711 0.47769028 16711680
0.1946865 -0.28879365 0.47918671 16711680
0.18561488 -0.28966334 0.47862142 16711680
0.17515752 -0.29059681 0.4780511 16711680
0.16539143 -0.28657821 0.47816616 16711680
0.15434001 -0.2875095 0.47800598 16711680
0.14553934 -0.29043674 0.47927967 16711680
0.13599131 -0.29147312 0.48269063 16711680
0.075173192 -0.29144454 0.48184913 16711680
0.06495516 -0.29085079 0.47904539 16711680
0.054959659 -0.28800964 0.47764999 16711680
0.045647923 -0.2869435 0.47512677 16711680
-0.06677255 -0.2876395 0.47466254 16711680
-0.075452626 -0.28895605 0.47762698 16711680
-0.08450444 -0.29036835 0.47996196 16711680
-0.094139382 -0.29126331 0.48236781 16711680
-0.10125223 -0.2906341 0.48418561 16711680
-0.11601421 -0.2906341 0.48418561 16711680
0.40219215 -0.297286 0.48409528 16711680
0.3949928 -0.29802138 0.48358184 16711680
0.38497332 -0.2974228 0.48377508 16711680
0.37500471 -0.29811195 0.48428294 16711680
0.36498615 -0.29850802 0.48489952 16711680
0.3549386 -0.2981202 0.48489916 16711680
0.34495768 -0.29833475 0.48539576 16711680
0.33492222 -0.29793176 0.4852519 16711680
0.32509303 -0.29765978 0.48484445 16711680
0.31515977 -0.29782775 0.48428106 16711680
0.30526739 -0.29851386 0.4835676 16711680
0.29519033 -0.29856035 0.48265666 16711680
0.28502554 -0.2989105 0.48195878 16711680
0.27494234 -0.29838702 0.48261672 16711680
0.2649712 -0.29828113 0.48388845 16711680
0.2550773 -0.29821962 0.48392302 16711680
0.24516989 -0.29840574 0.48268929 16711680
0.23565307 -0.2976729 0.48188052 16711680
0.22667535 -0.29582432 0.48120505 16711680
0.21680701 -0.29574561 0.478284 16711680
0.13413686 -0.29559207 0.4816871 16711680
0.12649153 -0.29612246 0.48397282 16711680
0.11151239 -0.29945695 0.48624852 16711680
0.10432762 -0.29922557 0.48439881 16711680
0.095111854 -0.29737401 0.48429787 16711680
0.084136471 -0.29689679 0.48250028 16711680
0.076273352 -0.29587862 0.47959247 16711680
-0.087051377 -0.29634595 0.47839975 16711680
-0.096296698 -0.29795462 0.48198497 16711680
-0.10492253 -0.29803732 0.48506111 16711680
-0.11493021 -0.29772553 0.48508757 16711680
-0.1245873 -0.29769927 0.48574281 16711680
-0.13431512 -0.29802236 0.4872759 16711680
-0.14448082 -0.29862499 0.48844069 16711680
-0.15531102 -0.29870275 0.48809689 16711680
-0.16490595 -0.29879954 0.48804462 16711680
-0.17573386 -0.29917186 0.48834518 16711680
-0.1856495 -0.29861519 0.48803386 16711680
-0.19508012 -0.29895186 0.48755842 16711680
-0.20462488 -0.29889899 0.48695284 16711680
-0.21437739 -0.29874635 0.48792186 16711680
-0.22509916 -0.29890296 0.48831007 16711680
-0.23422103 -0.29898068 0.48831171 16711680
-0.24294706 -0.29920018 0.4883163 16711680
0.40105343 -0.307466 0.4846659 16711680
0.39544278 -0.30664515 0.48393309 16711680
0.38513517 -0.3056539 0.4831326 16711680
0.37471098 -0.30620405 0.48367107 16711680
0.36463565 -0.30676216 0.48425987 16711680
0.3548083 -0.30675748 0.48482302 16711680
0.34518865 -0.30688339 0.48499799 16711680
0.33508587 -0.30655053 0.48496205 16711680
0.32480898 -0.30694661 0.48496336 16711680
0.31471926 -0.30711883 0.48477644 16711680
0.30486795 -0.30756912 0.4846226 16711680
0.2951633 -0.30622971 0.48345757 16711680
0.2850419 -0.30533418 0.4827424 16711680
0.2748099 -0.30626163 0.48340449 16711680
0.26567468 -0.30683628 0.48399001 16711680
0.25444275 -0.30617836 0.48362479 16711680
0.2455314 -0.30535522 0.48290041 16711680
0.10956877 -0.30438226 0.48288557 16711680
-0.098735869 -0.30546209 0.48325247 16711680
-0.10561003 -0.30682909 0.4851591 16711680
-0.11502007 -0.30769467 0.48537537 16711680
-0.12480438 -0.30782032 0.48606476 16711680
-0.13503306 -0.30767247 0.48754472 16711680
-0.14502563 -0.30687228 0.48863751 16711680
-0.15509698 -0.30708367 0.48839113 16711680
-0.16513635 -0.30698583 0.48847353 16711680
-0.17501087 -0.30707374 0.48840421 16711680
-0.18496801 -0.30719918 0.4882305 16711680
-0.19471075 -0.30747271 0.48713809 16711680
-0.20516099 -0.30761006 0.48676649 16711680
-0.21506827 -0.30732203 0.4882037 16711680
-0.2249871 -0.30716217 0.48824355 16711680
-0.2352847 -0.30715093 0.48829159 16711680
-0.24248748 -0.30630872 0.48858982 16711680
-0.12899795 -0.31343639 0.48695821 16711680
-0.13611837 -0.31442904 0.48776221 16711680
-0.14540158 -0.31470847 0.48855883 16711680
-0.15420288 -0.31478655 0.48825106 16711680
-0.16456646 -0.31483656 0.48776653 16711680
-0.17595652 -0.31493005 0.48818514 16711680
-0.1849294 -0.31493986 0.48829666 16711680
-0.19366799 -0.31378645 0.48716024 16711680
-0.20619781 -0.31378645 0.48716024 16711680
-0.21535413 -0.31473899 0.48837015 16711680
-0.22393046 -0.31512031 0.48843101 16711680
-0.23545627 -0.31471866 0.48862252 16711680
-0.24132843 -0.31484756 0.48913768 16711680
0.40539685 -0.26809329 0.48271868 16711680
0.39575613 -0.26788715 0.48259968 16711680
0.38540128 -0.26809329 0.48271868 16711680
0.37587962 -0.26809332 0.48271871 16711680
0.36457258 -0.26809329 0.48271868 16711680
0.35484716 -0.26788428 0.48248804 16711680
0.34494102 -0.26753968 0.48216015 16711680
0.33537468 -0.26779014 0.48244748 16711680
0.32508013 -0.26760826 0.48228469 16711680
0.31501117 -0.26761404 0.4815971 16711680
0.30550089 -0.26703739 0.48170853 16711680
0.29592112 -0.26751605 0.48238543 16711680
0.28539011 -0.2676892 0.48248538 16711680
0.27529672 -0.26732966 0.48224482 16711680
0.26520646 -0.26734254 0.48191068 16711680
0.25538272 -0.26742828 0.48179957 16711680
0.24555606 -0.2675344 0.48212445 16711680
0.23525302 -0.26686713 0.48176336 16711680
0.22611423 -0.26768681 0.48239166 16711680
0.21550304 -0.26809335 0.48271871 16711680
0.20506245 -0.26783094 0.48256719 16711680
0.19565879 -0.26774651 0.48198551 16711680
0.18539165 -0.26778519 0.48225212 16711680
0.17520277 -0.26809335 0.48271871 16711680
0.16497916 -0.26777959 0.48253757 16711680
0.15758145 -0.26793298 0.48262611 16711680
0.14184418 -0.26809329 0.48271874 16711680
0.13469076 -0.26789871 0.48242402 16711680
0.1251978 -0.26767591 0.48243326 16711680
0.11562777 -0.26768923 0.48248538 16711680
0.1055841 -0.26787657 0.48235306 16711680
0.095174462 -0.26774034 0.48230112 16711680
0.088152409 -0.26793298 0.48262611 16711680
0.066860825 -0.26809329 0.48271874 16711680
0.041310944 -0.26809329 0.48271874 16711680
0.037145201 -0.26809329 0.48271874 16711680
0.023440639 -0.26869655 0.48034516 16711680
0.015537966 -0.26708654 0.47632548 16711680
0.0053558275 -0.26199433 0.47736353 16711680
-0.0044666342 -0.26472068 0.47574872 16711680
-0.014109936 -0.26661497 0.47734267 16711680
-0.024967354 -0.26807943 0.47761962 16711680
-0.035438631 -0.2679196 0.4771443 16711680
-0.045048993 -0.26857188 0.47760642 16711680
-0.054796938 -0.2686455 0.47858858 16711680
-0.064468145 -0.26839313 0.48048049 16711680
-0.071745753 -0.26762736 0.48236716 16711680
-0.10782266 -0.26809329 0.48271874 16711680
-0.11569126 -0.26809332 0.48271868 16711680
-0.12115303 -0.26809332 0.48271874 16711680
-0.21863137 -0.26809332 0.48271874 16711680
-0.22113083 -0.26809332 0.48271874 16711680
0.41075778 -0.27083042 0.48333672 16711680
0.40468618 -0.27524292 0.48321271 16711680
0.39484408 -0.27485681 0.48382813 16711680
0.38497487 -0.27448437 0.48406586 16711680
0.37487927 -0.27502367 0.48354751 16711680
0.36499953 -0.27484781 0.48373204 16711680
0.35503742 -0.27488217 0.48374075 16711680
0.34502035 -0.2749894 0.48354349 16711680
0.33514181 -0.27496427 0.48360297 16711680
0.32511744 -0.27539709 0.48316652 16711680
0.31493276 -0.27571693 0.48272198 16711680
0.30482996 -0.27569595 0.48261899 16711680
0.29489404 -0.27515858 0.48301983 16711680
0.28501731 -0.27494338 0.48326617 16711680
0.27495077 -0.27535459 0.48306221 16711680
0.26519036 -0.27542689 0.48298261 16711680
0.25486395 -0.27561355 0.48256153 16711680
0.24489239 -0.27532011 0.48268038 16711680
0.23474608 -0.27534467 0.48275051 16711680
0.22494903 -0.2752538 0.4833993 16711680
0.2149671 -0.27472588 0.48397624 16711680
0.20496842 -0.274468 0.48415393 16711680
0.19492996 -0.27468401 0.48391506 16711680
0.18484409 -0.27508098 0.48347056 16711680
0.1749142 -0.27469787 0.48291865 16711680
0.16483447 -0.2747449 0.48263317 16711680
0.15497619 -0.27415177 0.48393145 16711680
0.14512375 -0.27487153 0.48406225 16711680
0.13502252 -0.27536029 0.48316139 16711680
0.12513758 -0.27499402 0.48357007 16711680
0.11518298 -0.27500045 0.48356336 16711680
0.10514871 -0.27561945 0.48287305 16711680
0.095255941 -0.27513918 0.48340821 16711680
0.085423455 -0.27452284 0.48420885 16711680
0.075312331 -0.27501225 0.48403463 16711680
0.065508008 -0.27525604 0.48356944 16711680
0.05559209 -0.27537495 0.48352891 16711680
0.045623798 -0.27404144 0.4825314 16711680
0.035994451 -0.27298313 0.48180747 16711680
0.027114838 -0.27276745 0.48000464 16711680
-0.058156576 -0.27417904 0.47607094 16711680
-0.066699445 -0.27476531 0.47973871 16711680
-0.075334847 -0.27435204 0.48322332 16711680
-0.085169628 -0.27519277 0.48427975 16711680
-0.095175847 -0.27486408 0.48485133 16711680
-0.1052075 -0.27472448 0.48420489 16711680
-0.11509953 -0.27478728 0.48376557 16711680
-0.12497045 -0.27494511 0.48374954 16711680
-0.13465412 -0.27531111 0.48449212 16711680
-0.14491813 -0.27561399 0.48586878 16711680
-0.15537918 -0.27529952 0.48605219 16711680
-0.16513124 -0.27399069 0.485232 16711680
-0.1743829 -0.2746295 0.48573869 16711680
-0.18425199 -0.27581546 0.48674402 16711680
-0.19429472 -0.27576435 0.48714754 16711680
-0.20588179 -0.27552634 0.48650634 16711680
-0.21527795 -0.27428135 0.48461309 16711680
-0.22487889 -0.27445456 0.48483956 16711680
-0.23417865 -0.27534506 0.48656434 16711680
-0.24541451 -0.27625993 0.48697791 16711680
-0.25029102 -0.27482757 0.48660678 16711680
0.40385261 -0.28513694 0.48383176 16711680
0.39486775 -0.28526267 0.48441869 16711680
0.38503477 -0.28542203 0.48496276 16711680
0.3752372 -0.28561172 0.48508736 16711680
0.36532897 -0.28572243 0.48506784 16711680
0.35500389 -0.28551796 0.48496044 16711680
0.34484467 -0.28548878 0.48517376 16711680
0.33501911 -0.28567663 0.48501566 16711680
0.32517299 -0.28596658 0.48442537 16711680
0.31514865 -0.28568223 0.48413521 16711680
0.30500782 -0.28524166 0.48347339 16711680
0.2952362 -0.28432688 0.48285347 16711680
0.28449115 -0.28404233 0.48274419 16711680
0.27474687 -0.2847285 0.4833205 16711680
0.26483274 -0.28563476 0.48389345 16711680
0.25508884 -0.28559953 0.48367295 16711680
0.24472131 -0.2847296 0.48333091 16711680
0.23474291 -0.2846151 0.4831692 16711680
0.22557598 -0.28534785 0.48447281 16711680
0.21538518 -0.28309813 0.48468438 16711680
0.2050432 -0.282637 0.48531395 16711680
0.19505598 -0.2838082 0.48287487 16711680
0.18459283 -0.28342512 0.48344487 16711680
0.17578681 -0.28311932 0.48278043 16711680
0.16895473 -0.28271812 0.48100102 16711680
0.15331547 -0.28296098 0.48285884 16711680
0.1436929 -0.28352997 0.48467666 16711680
0.13417305 -0.28529787 0.48455361 16711680
0.12452677 -0.28575256 0.48518765 16711680
0.11491936 -0.28569022 0.48605901 16711680
0.10503002 -0.28585884 0.48528534 16711680
0.094836868 -0.28547901 0.48564747 16711680
0.085358687 -0.28543302 0.48597443 16711680
0.075508356 -0.28441182 0.48444197 16711680
0.066270933 -0.28382468 0.48350835 16711680
0.05682477 -0.28313726 0.48185191 16711680
-0.076940656 -0.28255236 0.48118764 16711680
-0.085581616 -0.28354126 0.48304152 16711680
-0.095527828 -0.28432024 0.48460174 16711680
-0.10512827 -0.28562441 0.48496276 16711680
-0.1148805 -0.28582728 0.48473027 16711680
-0.124945 -0.28577733 0.48487023 16711680
-0.13508631 -0.28542989 0.48546213 16711680
-0.14489597 -0.28509107 0.48654333 16711680
-0.15515164 -0.28489253 0.48695704 16711680
-0.1652021 -0.28458199 0.48733357 16711680
-0.17507948 -0.28462693 0.48744446 16711680
-0.18505934 -0.28447548 0.48752561 16711680
-0.19519423 -0.28401947 0.48819906 16711680
-0.20528142 -0.28368279 0.48839068 16711680
-0.21490423 -0.28489444 0.487095 16711680
-0.22490491 -0.28492731 0.48708194 16711680
-0.23506017 -0.2841844 0.48784748 16711680
-0.24456452 -0.28419438 0.4876312 16711680
0.37246317 -0.29139006 0.48577687 16711680
0.36550274 -0.29139006 0.4857769 16711680
0.35370755 -0.29139006 0.4857769 16711680
0.34457427 -0.29169035 0.48604649 16711680
0.33538216 -0.29139006 0.4857769 16711680
0.32810682 -0.29139006 0.48577687 16711680
0.26157227 -0.29139006 0.48577687 16711680
0.25828663 -0.29139006 0.48577687 16711680
0.1368285 -0.29171351 0.48688734 16711680
0.12375444 -0.29244655 0.48696396 16711680
0.11450684 -0.2932142 0.48857218 16711680
0.10483496 -0.29274583 0.48716196 16711680
0.09557344 -0.29198724 0.48668027 16711680
0.085971296 -0.29165399 0.48699513 16711680
-0.10687844 -0.29162121 0.48612681 16711680
-0.11463533 -0.29174578 0.48598224 16711680
-0.12656744 -0.29168966 0.48594981 16711680
-0.13560319 -0.29265285 0.48683923 16711680
-0.14530961 -0.2940979 0.48800763 16711680
-0.15487623 -0.2940034 0.48814273 16711680
-0.16536056 -0.29407528 0.4884629 16711680
-0.17494927 -0.29410195 0.48847973 16711680
-0.18464471 -0.29384181 0.48802018 16711680
-0.19472536 -0.29335478 0.4881379 16711680
-0.2048905 -0.29289189 0.48808026 16711680
-0.21548451 -0.29362604 0.48808083 16711680
-0.22492792 -0.2935769 0.48853233 16711680
-0.23519485 -0.29367188 0.48857588 16711680
-0.24360316 -0.29375896 0.48853469 16711680
0.40356594 -0.24651548 0.48145258 16711680
0.39681393 -0.24638647 0.48139375 16711680
0.38980395 -0.24652126 0.48181117 16711680
0.35445341 -0.24687839 0.48143989 16711680
0.34834078 -0.24652126 0.48181117 16711680
0.32290277 -0.24642733 0.48161259 16711680
0.31458339 -0.24616024 0.48083284 16711680
0.3055855 -0.24658179 0.48103768 16711680
0.29488638 -0.24679592 0.48152566 16711680
0.28538582 -0.24595571 0.48081982 16711680
0.27569976 -0.24554762 0.48045525 16711680
0.26540664 -0.24636593 0.48078877 16711680
0.2551282 -0.24572018 0.48086751 16711680
0.24596928 -0.24588495 0.48089385 16711680
0.23446567 -0.24650627 0.48081267 16711680
0.22554645 -0.24646226 0.48136476 16711680
0.20260884 -0.24651599 0.48147818 16711680
0.19576453 -0.24570099 0.48095259 16711680
0.1875113 -0.24669984 0.48162559 16711680
0.1748013 -0.2466059 0.48142701 16711680
0.16588399 -0.24648196 0.48151356 16711680
0.1596411 -0.24652129 0.48181117 16711680
0.41323692 -0.25242478 0.48372093 16711680
0.40472254 -0.25273508 0.48251939 16711680
0.39498645 -0.25317949 0.48198378 16711680
0.38522559 -0.25278386 0.48260978 16711680
0.37510699 -0.2525346 0.48337293 16711680
0.36486304 -0.25274274 0.48291355 16711680
0.35480633 -0.25317129 0.4822852 16711680
0.34493196 -0.25289485 0.48255768 16711680
0.33471349 -0.25288758 0.48292875 16711680
0.324855 -0.2530652 0.48222736 16711680
0.31512049 -0.25364193 0.48138431 16711680
0.30507147 -0.25385845 0.48126578 16711680
0.29508936 -0.25334653 0.48180541 16711680
0.28474364 -0.25354007 0.48120645 16711680
0.27492592 -0.25379533 0.48057085 16711680
0.26509851 -0.2539427 0.48080373 16711680
0.25514302 -0.25340039 0.48132217 16711680
0.24505761 -0.25361577 0.4810698 16711680
0.2349577 -0.25374892 0.48090827 16711680
0.22504704 -0.25341982 0.4817023 16711680
0.21497619 -0.25283849 0.48259917 16711680
0.20492701 -0.25321633 0.48202667 16711680
0.19526529 -0.25311381 0.48222011 16711680
0.18541761 -0.25296909 0.48284417 16711680
0.17511676 -0.25290146 0.48235857 16711680
0.16497631 -0.25324798 0.48188433 16711680
0.15541212 -0.25291345 0.48291069 16711680
0.14500451 -0.25311542 0.48364407 16711680
0.13476132 -0.25358659 0.4832325 16711680
0.12456077 -0.25348562 0.48292845 16711680
0.1143675 -0.2530489 0.48275882 16711680
0.10455395 -0.25249949 0.48278263 16711680
0.094360039 -0.2535066 0.48275405 16711680
0.084708825 -0.25325525 0.48353159 16711680
0.075358965 -0.25366849 0.485064 16711680
0.06542141 -0.25343639 0.48462287 16711680
0.055648703 -0.25359365 0.48452491 16711680
0.045057252 -0.25366509 0.48393258 16711680
0.035152726 -0.25334471 0.4836145 16711680
0.025072742 -0.25329733 0.48385155 16711680
0.01500554 -0.25354084 0.48239982 16711680
0.0052287504 -0.25224787 0.48280799 16711680
-0.0056253783 -0.2529867 0.48328176 16711680
-0.015120473 -0.25376809 0.48396868 16711680
-0.025338437 -0.253901 0.48471346 16711680
-0.035456467 -0.25355074 0.4849315 16711680
-0.044370499 -0.25356263 0.48527771 16711680
-0.054727349 -0.2538439 0.48495415 16711680
-0.065384656 -0.25420073 0.48422435 16711680
-0.074777544 -0.25395036 0.48348594 16711680
-0.084345251 -0.25356376 0.48446903 16711680
-0.094978243 -0.25353241 0.48507893 16711680
-0.10526599 -0.25335658 0.48470792 16711680
-0.11485021 -0.25381798 0.48367172 16711680
-0.12486929 -0.25372526 0.48406985 16711680
-0.13523284 -0.25356361 0.48467228 16711680
-0.14520863 -0.25395146 0.48533127 16711680
-0.1554357 -0.25364083 0.48459131 16711680
-0.16502601 -0.25367269 0.4842082 16711680
-0.17438236 -0.25356498 0.48452589 16711680
-0.1849318 -0.25378904 0.4850837 16711680
-0.19445388 -0.25408763 0.48527247 16711680
-0.20427202 -0.25516751 0.48627812 16711680
-0.2154582 -0.25511757 0.48625454 16711680
-0.22543646 -0.2545934 0.4854899 16711680
-0.23383085 -0.25520477 0.48636258 16711680
0.41209137 -0.26209018 0.48367932 16711680
0.40488902 -0.26281813 0.48316678 16711680
0.39452651 -0.262418 0.48274368 16711680
0.38474444 -0.26255485 0.48280123 16711680
0.37490487 -0.26241618 0.48325172 16711680
0.36508885 -0.26271519 0.48327273 16711680
0.35495263 -0.26241663 0.48259491 16711680
0.34483296 -0.26232216 0.48243442 16711680
0.334885 -0.26225695 0.48270839 16711680
0.32491311 -0.26216555 0.48231459 16711680
0.31477594 -0.26208413 0.48160917 16711680
0.30442452 -0.26188633 0.48155463 16711680
0.29470205 -0.26246729 0.48221987 16711680
0.28491315 -0.26252541 0.48227149 16711680
0.27487031 -0.26254052 0.48166966 16711680
0.26490605 -0.26260394 0.48168784 16711680
0.25457373 -0.26214623 0.48166537 16711680
0.24471375 -0.2624214 0.48191839 16711680
0.23473407 -0.26229757 0.48199466 16711680
0.2245895 -0.26265511 0.48226726 16711680
0.21484287 -0.26286075 0.48285463 16711680
0.20478067 -0.26303935 0.48277575 16711680
0.1946418 -0.26298702 0.482894 16711680
0.18471488 -0.26253664 0.48325601 16711680
0.17492393 -0.26227719 0.48294345 16711680
0.16521294 -0.26240721 0.48264125 16711680
0.15478155 -0.26262033 0.48336288 16711680
0.14518894 -0.26275215 0.48378152 16711680
0.13522597 -0.26237023 0.48293015 16711680
0.12532303 -0.2624259 0.4824158 16711680
0.11512753 -0.26236135 0.48252338 16711680
0.10531089 -0.26226455 0.48281774 16711680
0.095711224 -0.26232502 0.48249829 16711680
0.085284933 -0.26251578 0.48339909 16711680
0.075646237 -0.26252645 0.48461109 16711680
0.065522246 -0.26229319 0.48402843 16711680
0.055511199 -0.26264411 0.48453772 16711680
0.045498565 -0.26251829 0.4838981 16711680
0.035326373 -0.26279336 0.48343194 16711680
0.025980035 -0.26147339 0.48413354 16711680
0.017855521 -0.26075247 0.48146352 16711680
0.0095881559 -0.26017517 0.47930187 16711680
-0.0054319873 -0.26017517 0.47930187 16711680
-0.017104473 -0.26015094 0.48241234 16711680
-0.02498414 -0.25905377 0.48397309 16711680
-0.034903962 -0.25866261 0.4839713 16711680
-0.045556534 -0.25956172 0.48342654 16711680
-0.055408265 -0.25950789 0.48369142 16711680
-0.065541089 -0.26100478 0.48288411 16711680
-0.075555533 -0.26279634 0.48292711 16711680
-0.085409597 -0.26256725 0.48444843 16711680
-0.095078155 -0.26230288 0.4847272 16711680
-0.10494831 -0.26214379 0.48420078 16711680
-0.11500466 -0.26256534 0.48331502 16711680
-0.12519538 -0.26281694 0.48368645 16711680
-0.13503042 -0.2627219 0.48472598 16711680
-0.14512505 -0.26252523 0.48551318 16711680
-0.1551694 -0.26286972 0.48478773 16711680
-0.16493708 -0.26260778 0.48396266 16711680
-0.17504336 -0.26266125 0.48438564 16711680
-0.18486127 -0.26251253 0.48541176 16711680
-0.1947549 -0.26264551 0.48591846 16711680
-0.20485465 -0.26292592 0.48600012 16711680
-0.21499671 -0.26256758 0.48485568 16711680
-0.22514419 -0.26232404 0.48444638 16711680
-0.23517312 -0.26256832 0.48621717 16711680
-0.24500798 -0.26191881 0.48743376 16711680
-0.2525256 -0.26104417 0.48752183 16711680
0.1522795 -0.26884705 0.4843086 16711680
0.14310052 -0.26884705 0.4843086 16711680
0.082185507 -0.26884705 0.4843086 16711680
0.076344341 -0.26884705 0.4843086 16711680
0.063326888 -0.26884705 0.4843086 16711680
0.056595635 -0.26932883 0.48458675 16711680
0.048306745 -0.26884705 0.4843086 16711680
-0.078863785 -0.26884705 0.4843086 16711680
-0.083870515 -0.26884708 0.4843086 16711680
-0.094339088 -0.26884708 0.4843086 16711680
-0.10278474 -0.26884705 0.4843086 16711680
-0.12893094 -0.26884708 0.4843086 16711680
-0.13601023 -0.26973423 0.48494923 16711680
-0.14524472 -0.27036715 0.48587036 16711680
-0.15452322 -0.27038804 0.48559809 16711680
-0.16397792 -0.26884708 0.4843086 16711680
-0.17633523 -0.27013215 0.48543549 16711680
-0.18546148 -0.27100962 0.48640406 16711680
-0.19516285 -0.27112067 0.48675397 16711680
-0.20408274 -0.27118856 0.48647401 16711680
-0.21170859 -0.26942518 0.48464239 16711680
-0.22697906 -0.26884708 0.4843086 16711680
-0.23613535 -0.27088287 0.4863821 16711680
-0.244817 -0.2709004 0.48725766 16711680
-0.25094497 -0.27027565 0.48670799 16711680
0.42167571 -0.22449765 0.4806428 16711680
0.41432452 -0.22441491 0.48059511 16711680
0.40497687 -0.22372112 0.48019463 16711680
0.39503974 -0.22350553 0.48006999 16711680
0.38570035 -0.22372118 0.48019466 16711680
0.37470475 -0.22400153 0.48035645 16711680
0.36493251 -0.22408086 0.48040235 16711680
0.35484293 -0.22417405 0.48045614 16711680
0.34459093 -0.22449765 0.48064274 16711680
0.33466488 -0.2243984 0.48058552 16711680
0.32540816 -0.22390229 0.48029923 16711680
0.31507286 -0.22316182 0.479702 16711680
0.30470166 -0.22264734 0.47929475 16711680
0.29517931 -0.22272971 0.47947788 16711680
0.28472945 -0.22287953 0.4796083 16711680
0.27578914 -0.22294262 0.47950757 16711680
0.26555824 -0.22346231 0.48004523 16711680
0.2548829 -0.22330704 0.47995558 16711680
0.24471268 -0.22410932 0.48041877 16711680
0.2338873 -0.22378105 0.48022926 16711680
0.22503166 -0.22347125 0.48005038 16711680
0.21553329 -0.22400156 0.48035654 16711680
0.20518534 -0.22396183 0.48033363 16711680
0.19484028 -0.2242496 0.48049966 16711680
0.18390466 -0.22341529 0.48001805 16711680
0.17507809 -0.22379273 0.48023587 16711680
0.16689016 -0.2241475 0.48044065 16711680
0.15875281 -0.22449768 0.4806428 16711680
0.14277123 -0.22420001 0.48047096 16711680
0.13383529 -0.22382113 0.48025239 16711680
0.12438382 -0.22309694 0.47983426 16711680
0.11557676 -0.22375357 0.4802132 16711680
0.10977699 -0.22449768 0.4806428 16711680
0.091217726 -0.22420001 0.48047096 16711680
0.084736712 -0.22377479 0.48022562 16711680
0.07575167 -0.22420001 0.48047101 16711680
0.048772007 -0.22449768 0.4806428 16711680
0.031301096 -0.22449768 0.48064283 16711680
0.023625353 -0.22429922 0.48052824 16711680
0.015166756 -0.22391888 0.48030871 16711680
0.0043787137 -0.22424966 0.48049954 16711680
-0.0044999458 -0.22412556 0.48042813 16711680
-0.014810655 -0.22449768 0.48064274 16711680
-0.02545182 -0.22438321 0.48057663 16711680
-0.034716036 -0.22375357 0.48021314 16711680
-0.045169946 -0.22400162 0.48035634 16711680
-0.051413637 -0.22449768 0.4806428 16711680
-0.068941832 -0.22449768 0.4806428 16711680
-0.074956402 -0.22449768 0.48064274 16711680
0.42121011 -0.2290642 0.48154724 16711680
0.41509068 -0.2309927 0.48134115 16711680
0.40516385 -0.23061579 0.48056859 16711680
0.39478704 -0.23054034 0.48049226 16711680
0.38504821 -0.23067477 0.48104888 16711680
0.37488708 -0.23044249 0.48180249 16711680
0.36463386 -0.23054972 0.48156318 16711680
0.35491058 -0.23079565 0.48137185 16711680
0.34513071 -0.23051563 0.4816007 16711680
0.33493567 -0.23097023 0.48125124 16711680
0.3248944 -0.23057473 0.48110363 16711680
0.31476691 -0.23052654 0.48079091 16711680
0.30477118 -0.23060533 0.4804163 16711680
0.29509923 -0.23011044 0.48019576 16711680
0.28511542 -0.22979975 0.47997195 16711680
0.27500451 -0.23015007 0.48019019 16711680
0.2650862 -0.23052481 0.48096651 16711680
0.25480822 -0.23071232 0.48110884 16711680
0.24491534 -0.23052263 0.48147404 16711680
0.23518123 -0.23072121 0.48155537 16711680
0.22508575 -0.2306481 0.48122102 16711680
0.21508996 -0.23048025 0.4813723 16711680
0.20500371 -0.23073989 0.48101348 16711680
0.1951078 -0.23101151 0.48067495 16711680
0.18506871 -0.2310372 0.48068154 16711680
0.17534862 -0.23100305 0.48095959 16711680
0.16529416 -0.23072547 0.48154867 16711680
0.15509944 -0.2303158 0.4824433 16711680
0.14464784 -0.23042837 0.48190391 16711680
0.1345268 -0.23039231 0.48167136 16711680
0.12501846 -0.23011029 0.48161551 16711680
0.11560437 -0.23003376 0.48167416 16711680
0.1055444 -0.23050296 0.48212466 16711680
0.094847053 -0.2302227 0.4822852 16711680
0.084732093 -0.23073485 0.48143417 16711680
0.07447987 -0.23026487 0.48190701 16711680
0.065215111 -0.23004708 0.48294896 16711680
0.055606332 -0.23001254 0.48310354 16711680
0.045254014 -0.23004442 0.48285356 16711680
0.035008445 -0.23001751 0.48220813 16711680
0.02477536 -0.23012716 0.48204526 16711680
0.014474962 -0.23001772 0.48207903 16711680
0.0048063919 -0.23029172 0.48205873 16711680
-0.0045380034 -0.23027384 0.48173535 16711680
-0.014607597 -0.23045951 0.48171142 16711680
-0.024924237 -0.23032099 0.48190355 16711680
-0.035326224 -0.23035306 0.48195308 16711680
-0.045213666 -0.23069271 0.48155552 16711680
-0.054729041 -0.22970816 0.48240545 16711680
-0.064609453 -0.23013902 0.48297638 16711680
-0.074660689 -0.2298649 0.48241675 16711680
-0.084815472 -0.23000652 0.48272687 16711680
-0.095464602 -0.23042703 0.48326704 16711680
-0.10508841 -0.23049355 0.48306018 16711680
-0.11439963 -0.23007798 0.4834193 16711680
-0.12479742 -0.23039344 0.48342389 16711680
-0.13498835 -0.23012176 0.4830837 16711680
-0.14525044 -0.23029652 0.48326099 16711680
-0.15507761 -0.23043582 0.48312667 16711680
-0.16483246 -0.23066345 0.48330259 16711680
-0.17504875 -0.23026648 0.4830831 16711680
-0.18499465 -0.23031858 0.48308742 16711680
-0.1953648 -0.2300106 0.48294854 16711680
-0.20492084 -0.23000672 0.48275581 16711680
-0.2144172 -0.23086926 0.48360324 16711680
-0.22385086 -0.23145154 0.4846133 16711680
-0.23451953 -0.23185128 0.4848884 16711680
-0.24530904 -0.23139051 0.48462245 16711680
-0.25564006 -0.23127982 0.48451412 16711680
0.41478476 -0.24107578 0.48244748 16711680
0.40486941 -0.24099526 0.48135322 16711680
0.39494821 -0.24088123 0.48146176 16711680
0.38507062 -0.24151284 0.48233131 16711680
0.37496507 -0.24119771 0.48236698 16711680
0.36493492 -0.24136212 0.48237726 16711680
0.3549735 -0.24135253 0.48211604 16711680
0.34508094 -0.24124578 0.48238891 16711680
0.33506668 -0.24129429 0.48247549 16711680
0.32510433 -0.24108079 0.4818275 16711680
0.31522557 -0.24072963 0.48148263 16711680
0.30502728 -0.24094161 0.48145393 16711680
0.29513237 -0.24067715 0.48128307 16711680
0.2850799 -0.23973069 0.4803701 16711680
0.27488738 -0.23947927 0.48043364 16711680
0.26504233 -0.24046555 0.48103812 16711680
0.25510064 -0.24050269 0.48115093 16711680
0.24483952 -0.24050856 0.48143575 16711680
0.23509604 -0.24080062 0.48183683 16711680
0.22498092 -0.24097863 0.48207542 16711680
0.2152402 -0.24156424 0.48233381 16711680
0.20527309 -0.24125224 0.48147351 16711680
0.19453007 -0.24116999 0.48128611 16711680
0.18481766 -0.24125412 0.4820658 16711680
0.17493196 -0.24118397 0.4819054 16711680
0.16480671 -0.24085116 0.48157734 16711680
0.15508913 -0.24119395 0.48252404 16711680
0.14512455 -0.24094102 0.48289347 16711680
0.13535731 -0.24092665 0.48305041 16711680
0.12544039 -0.24052054 0.48327291 16711680
0.11517948 -0.24117994 0.48261958 16711680
0.10488768 -0.24145341 0.48231104 16711680
0.094747052 -0.24083075 0.48295203 16711680
0.084518798 -0.24102354 0.4827556 16711680
0.07434272 -0.24033725 0.48346224 16711680
0.064996548 -0.23955125 0.4842684 16711680
0.05560847 -0.23960879 0.48420912 16711680
0.04537221 -0.24006397 0.48374078 16711680
0.035165925 -0.24083924 0.48294398 16711680
0.024954764 -0.24092725 0.48285383 16711680
0.014727592 -0.24071848 0.48306656 16711680
0.0045028664 -0.24063921 0.48314908 16711680
-0.0053277574 -0.24055809 0.48349389 16711680
-0.014664773 -0.23992914 0.48362526 16711680
-0.024572175 -0.23986602 0.48394698 16711680
-0.034755353 -0.24014616 0.48365968 16711680
-0.04498015 -0.24017867 0.48362732 16711680
-0.055152107 -0.23966229 0.48434898 16711680
-0.065139323 -0.23932254 0.48453125 16711680
-0.075117171 -0.23990378 0.48393223 16711680
-0.084998101 -0.2391119 0.48451775 16711680
-0.094890401 -0.23900223 0.48483407 16711680
-0.10502437 -0.2391355 0.48464364 16711680
-0.11518851 -0.23917699 0.4847067 16711680
-0.12519647 -0.23941436 0.48451805 16711680
-0.1351008 -0.23977476 0.48406547 16711680
-0.14512858 -0.2400001 0.48383248 16711680
-0.15503998 -0.23993284 0.48387563 16711680
-0.16493522 -0.23957703 0.48413259 16711680
-0.17499432 -0.23936185 0.48435619 16711680
-0.18500499 -0.23949102 0.4844678 16711680
-0.19487016 -0.23969421 0.48417467 16711680
-0.20507379 -0.23971677 0.48447314 16711680
-0.2152002 -0.23922965 0.48564991 16711680
-0.22497104 -0.23916087 0.4858959 16711680
-0.23502733 -0.23880497 0.48610002 16711680
-0.24497847 -0.23878679 0.4864184 16711680
-0.2546244 -0.23884663 0.48617461 16711680
0.41488814 -0.24766496 0.48369393 16711680
0.40897229 -0.24727502 0.483401 16711680
0.38185263 -0.24727502 0.483401 16711680
0.37507266 -0.24727502 0.483401 16711680
0.3665978 -0.24727502 0.483401 16711680
0.35558039 -0.24727502 0.483401 16711680
0.34456301 -0.24727502 0.483401 16711680
0.3362422 -0.24727502 0.483401 16711680
0.32930818 -0.24727502 0.483401 16711680
0.22167686 -0.24727502 0.483401 16711680
0.21574442 -0.24727505 0.483401 16711680
0.19088469 -0.24727505 0.483401 16711680
0.18438727 -0.24727505 0.483401 16711680
0.17845483 -0.24727505 0.483401 16711680
0.15317138 -0.24751973 0.48354226 16711680
0.14543416 -0.24785656 0.48398405 16711680
0.13535132 -0.24763256 0.48382112 16711680
0.12540193 -0.24742192 0.4834857 16711680
0.11620282 -0.24727505 0.483401 16711680
0.1004857 -0.24727505 0.483401 16711680
0.094553269 -0.24727514 0.48340097 16711680
0.083410859 -0.24770117 0.48378006 16711680
0.074331895 -0.24802673 0.48474389 16711680
0.065531649 -0.24793923 0.48479846 16711680
0.055485737 -0.24793416 0.48473981 16711680
0.045827664 -0.24779516 0.48465887 16711680
0.035505436 -0.24774659 0.48401952 16711680
0.025217939 -0.24796325 0.48379809 16711680
0.015736643 -0.24727505 0.483401 16711680
0.003860157 -0.24754903 0.4837414 16711680
-0.0054511689 -0.24758643 0.48397881 16711680
-0.015650291 -0.24783248 0.4845736 16711680
-0.024944622 -0.24794841 0.48517561 16711680
-0.034353431 -0.2481932 0.48512772 16711680
-0.044748459 -0.24821985 0.48531309 16711680
-0.054644469 -0.24814945 0.48523986 16711680
-0.064527303 -0.24803174 0.48499262 16711680
-0.075008497 -0.24777177 0.48407245 16711680
-0.085752681 -0.24788886 0.48478711 16711680
-0.095476806 -0.24795038 0.48503289 16711680
-0.10511491 -0.24784333 0.48485696 16711680
-0.1151533 -0.24737918 0.48451674 16711680
-0.12508111 -0.24752903 0.48470235 16711680
-0.13448879 -0.24797145 0.48469782 16711680
-0.14475633 -0.24853799 0.48483935 16711680
-0.1544245 -0.24828693 0.48467794 16711680
-0.16503903 -0.24776471 0.48459104 16711680
-0.17550001 -0.24787354 0.48480311 16711680
-0.18515097 -0.24845538 0.48495409 16711680
-0.19547346 -0.24858242 0.484992 16711680
-0.20517559 -0.24940267 0.48601201 16711680
-0.21491806 -0.24945208 0.48686707 16711680
-0.22504573 -0.2490336 0.48610413 16711680
-0.23521928 -0.24965191 0.4868111 16711680
-0.24492179 -0.25008097 0.48768806 16711680
-0.25359467 -0.24969617 0.48771951 16711680
-0.24732439 -0.25608248 0.48848596 16711680
-0.25094038 -0.25608248 0.48848596 16711680
0.39382368 -0.20183444 0.47881654 16711680
0.38468707 -0.201029 0.47816774 16711680
0.37513581 -0.20103592 0.47837761 16711680
0.36509424 -0.20093125 0.4785836 16711680
0.355885 -0.20184892 0.47884703 16711680
0.34968427 -0.20202237 0.47921371 16711680
0.32002729 -0.20202237 0.47921371 16711680
0.31479371 -0.20202237 0.47921371 16711680
0.30406499 -0.20168 0.47870117 16711680
0.29545373 -0.20190376 0.47896275 16711680
0.28557289 -0.20183349 0.47910467 16711680
0.27619606 -0.20183349 0.47910467 16711680
0.25199077 -0.20187128 0.47912648 16711680
0.24532047 -0.20184463 0.47911102 16711680
0.23919754 -0.20202243 0.47921365 16711680
0.22058925 -0.20202237 0.47921371 16711680
0.21383719 -0.20159113 0.4788546 16711680
0.20559354 -0.2018345 0.47881651 16711680
0.19965494 -0.20202237 0.47921371 16711680
0.17435929 -0.20202237 0.47921371 16711680
0.16767195 -0.20202243 0.47921365 16711680
0.13421485 -0.20214885 0.47909436 16711680
0.12547319 -0.20227545 0.478975 16711680
0.10021691 -0.20202237 0.47921371 16711680
0.094983332 -0.20202237 0.47921371 16711680
0.42403868 -0.2083419 0.48116297 16711680
0.41497666 -0.20842165 0.48069781 16711680
0.40514448 -0.20878744 0.48063123 16711680
0.39482233 -0.20875704 0.48009044 16711680
0.38474682 -0.20849293 0.47914335 16711680
0.37498891 -0.20868367 0.47896302 16711680
0.36509424 -0.20811015 0.47923732 16711680
0.35484558 -0.20822954 0.47962931 16711680
0.34500295 -0.20837015 0.4804616 16711680
0.33466351 -0.20843768 0.48077062 16711680
0.3249307 -0.20838153 0.48016554 16711680
0.3151136 -0.20817566 0.47971815 16711680
0.30494207 -0.20828658 0.47942778 16711680
0.29484418 -0.20855755 0.4792918 16711680
0.28518826 -0.20806688 0.47945404 16711680
0.27505058 -0.20813394 0.47971296 16711680
0.2650944 -0.20850533 0.48031723 16711680
0.25497794 -0.20874053 0.47996449 16711680
0.24495818 -0.20884281 0.47941905 16711680
0.23509061 -0.20837957 0.47996199 16711680
0.22507915 -0.20844877 0.47975549 16711680
0.21513897 -0.20861548 0.47922614 16711680
0.2048499 -0.2084741 0.47933206 16711680
0.19537951 -0.20821977 0.48064515 16711680
0.1848578 -0.20833796 0.48069471 16711680
0.17498699 -0.20885748 0.48008069 16711680
0.16518657 -0.20850575 0.4799549 16711680
0.15510532 -0.20836383 0.48048204 16711680
0.14444432 -0.20805699 0.48078319 16711680
0.13510107 -0.20863932 0.47985867 16711680
0.12537363 -0.20878875 0.47974601 16711680
0.11474329 -0.20860553 0.48054901 16711680
0.10467061 -0.20817447 0.4805167 16711680
0.095200151 -0.20868874 0.47972029 16711680
0.08526314 -0.20843512 0.47996688 16711680
0.074829847 -0.20886523 0.48032233 16711680
0.064497791 -0.20884895 0.48050255 16711680
0.054910351 -0.20885271 0.48116845 16711680
0.045275234 -0.20893699 0.48139679 16711680
0.034915816 -0.20929074 0.48143661 16711680
0.024345241 -0.20919597 0.48062137 16711680
0.015094779 -0.2083866 0.4800691 16711680
0.0052351393 -0.20864177 0.47993749 16711680
-0.0049334988 -0.20893192 0.4805297 16711680
-0.015082639 -0.20920759 0.48113668 16711680
-0.024710793 -0.20887846 0.481666 16711680
-0.034963887 -0.20913571 0.4812299 16711680
-0.045215879 -0.208754 0.48119301 16711680
-0.055301424 -0.20906621 0.48126447 16711680
-0.064959615 -0.20866752 0.48115897 16711680
-0.074590147 -0.20869964 0.48113281 16711680
-0.08513619 -0.20893228 0.48195797 16711680
-0.09552227 -0.20954704 0.48243728 16711680
-0.10490263 -0.20885104 0.48133302 16711680
-0.11453341 -0.20901203 0.48174596 16711680
-0.12494507 -0.2092278 0.48249909 16711680
-0.13555515 -0.20928562 0.48166367 16711680
-0.14482702 -0.20891172 0.48090133 16711680
-0.15506954 -0.2090717 0.48141193 16711680
-0.16500235 -0.20899081 0.48159924 16711680
-0.1744751 -0.20901364 0.48221684 16711680
-0.18431538 -0.2094481 0.48311591 16711680
-0.19597851 -0.20921439 0.48249996 16711680
-0.2052999 -0.20878786 0.48109019 16711680
-0.21490313 -0.20829779 0.48129702 16711680
-0.22501515 -0.20848376 0.48211288 16711680
-0.23516653 -0.20886379 0.48222995 16711680
-0.244729 -0.20908606 0.48254967 16711680
-0.25438812 -0.20919818 0.48327416 16711680
-0.26267296 -0.20938569 0.48317626 16711680
0.42257032 -0.21819326 0.48095769 16711680
0.4151015 -0.21877083 0.48050708 16711680
0.40514618 -0.21835598 0.48016912 16711680
0.39503273 -0.21845359 0.48000938 16711680
0.38445646 -0.21869165 0.47976235 16711680
0.37485981 -0.21883741 0.47988671 16711680
0.36514413 -0.21820861 0.47970581 16711680
0.35509107 -0.21842435 0.47968781 16711680
0.34488139 -0.21909538 0.48044065 16711680
0.33502907 -0.21884254 0.4805868 16711680
0.32495487 -0.21824989 0.48004159 16711680
0.31506276 -0.21768767 0.4794482 16711680
0.30542606 -0.21769956 0.47915792 16711680
0.29492483 -0.21776015 0.47917956 16711680
0.28501311 -0.21746781 0.47927183 16711680
0.27472565 -0.21742579 0.47940636 16711680
0.26494566 -0.21802083 0.48051882 16711680
0.25520352 -0.21873268 0.48025864 16711680
0.24509315 -0.21877211 0.47999769 16711680
0.23527478 -0.21868947 0.47989658 16711680
0.22449131 -0.21803874 0.47963524 16711680
0.21484956 -0.21807522 0.47967258 16711680
0.20550005 -0.21822649 0.47970054 16711680
0.19508165 -0.21868896 0.48056632 16711680
0.18530683 -0.21832705 0.48060086 16711680
0.17459746 -0.21862721 0.48023018 16711680
0.16447313 -0.21888146 0.48042899 16711680
0.15508369 -0.21920657 0.48113289 16711680
0.14536774 -0.21922898 0.48110768 16711680
0.135187 -0.2186929 0.48028365 16711680
0.12480001 -0.21789545 0.47946101 16711680
0.11463127 -0.21822101 0.48035264 16711680
0.10529774 -0.21948427 0.48102921 16711680
0.09550643 -0.21936622 0.48041254 16711680
0.085163802 -0.21826634 0.47955006 16711680
0.074292809 -0.21898228 0.48021287 16711680
0.06483876 -0.21921897 0.48097226 16711680
0.055417012 -0.21939015 0.48119867 16711680
0.045233227 -0.2189723 0.48131013 16711680
0.035085268 -0.21918988 0.48104212 16711680
0.024824489 -0.21887451 0.48064452 16711680
0.014606275 -0.21912336 0.48009038 16711680
0.0054797195 -0.21922576 0.48032659 16711680
-0.0047219545 -0.21857971 0.48032242 16711680
-0.015120011 -0.21881741 0.480986 16711680
-0.025227364 -0.21850777 0.48126516 16711680
-0.034984116 -0.2185899 0.48116747 16711680
-0.044681188 -0.21824771 0.48118821 16711680
-0.054983947 -0.2191087 0.48100883 16711680
-0.065134898 -0.21919358 0.4811478 16711680
-0.075142547 -0.21919692 0.48110592 16711680
-0.084977239 -0.21850687 0.48178914 16711680
-0.094945401 -0.21822605 0.48198545 16711680
-0.10487238 -0.21929345 0.4811019 16711680
-0.11504586 -0.21875164 0.48188773 16711680
-0.12497057 -0.21807835 0.48226383 16711680
-0.13506687 -0.21855971 0.48182023 16711680
-0.14502396 -0.21866488 0.48149961 16711680
-0.15509571 -0.21873844 0.48175278 16711680
-0.16508271 -0.21871835 0.48180246 16711680
-0.17528534 -0.21807 0.48229825 16711680
-0.18525659 -0.21780875 0.48261079 16711680
-0.19511774 -0.21823433 0.48206303 16711680
-0.20483924 -0.21933764 0.48103124 16711680
-0.21482177 -0.21806297 0.48210195 16711680
-0.22503902 -0.21722427 0.48326567 16711680
-0.23514985 -0.21699336 0.4834668 16711680
-0.24534236 -0.21662652 0.48374343 16711680
-0.25533441 -0.21664205 0.48364615 16711680
-0.2617923 -0.21640196 0.48326802 16711680
0.25615761 -0.22525141 0.48223266 16711680
0.16235995 -0.22525144 0.48223266 16711680
0.15547572 -0.2252515 0.48223263 16711680
0.14773098 -0.22525144 0.48223266 16711680
0.10341373 -0.22525144 0.48223269 16711680
0.098393977 -0.22525144 0.48223266 16711680
0.064403087 -0.2254999 0.48237604 16711680
0.055826481 -0.22525147 0.4822326 16711680
0.045901716 -0.2252515 0.48223263 16711680
0.039304323 -0.22525144 0.48223266 16711680
-0.024374817 -0.22525144 0.48223266 16711680
-0.033840638 -0.22525144 0.48223266 16711680
-0.058795977 -0.22525144 0.48223266 16711680
-0.064303368 -0.22525147 0.4822326 16711680
-0.078588128 -0.22525144 0.48223266 16711680
-0.087579995 -0.22525361 0.48246485 16711680
-0.095154315 -0.22552544 0.48270565 16711680
-0.10494372 -0.22562519 0.48256385 16711680
-0.11555746 -0.22584087 0.48298529 16711680
-0.12479408 -0.22555873 0.48279494 16711680
-0.13506113 -0.22534046 0.48241985 16711680
-0.14500216 -0.22541067 0.48256761 16711680
-0.15433151 -0.2252107 0.48227313 16711680
-0.16510469 -0.22567779 0.48290208 16711680
-0.1749566 -0.2251378 0.48259237 16711680
-0.18523045 -0.22538486 0.4827112 16711680
-0.1936858 -0.2256014 0.48266566 16711680
-0.20729865 -0.22525147 0.48223269 16711680
-0.21581344 -0.22567502 0.48319024 16711680
-0.22536083 -0.22661641 0.4840405 16711680
-0.23532905 -0.22672597 0.48439652 16711680
-0.24512042 -0.22685832 0.4846594 16711680
-0.25463024 -0.22664928 0.48453355 16711680
-0.26058266 -0.22638014 0.48392349 16711680
0.37142718 -0.17909545 0.47752377 16711680
0.3670007 -0.17909545 0.47752377 16711680
0.3444255 -0.17909545 0.47752377 16711680
0.33380687 -0.17895877 0.4772349 16711680
0.32549691 -0.17858434 0.47722867 16711680
0.3153902 -0.1786828 0.47686559 16711680
0.30812812 -0.17909539 0.47752383 16711680
0.28156909 -0.17909545 0.47752377 16711680
0.27537197 -0.17909545 0.47752377 16711680
0.22225386 -0.17909545 0.47752377 16711680
0.21470377 -0.1786117 0.47692952 16711680
0.20684962 -0.17878872 0.47734672 16711680
0.12398538 -0.17909545 0.47752377 16711680
0.11424707 -0.17909545 0.47752377 16711680
0.10982055 -0.17909545 0.47752377 16711680
0.43238574 -0.1864922 0.48088706 16711680
0.42524242 -0.18763757 0.48146021 16711680
0.41479775 -0.1875307 0.48164693 16711680
0.40408048 -0.18562478 0.48021269 16711680
0.39504114 -0.18561262 0.47909644 16711680
0.38487911 -0.18612736 0.47877714 16711680
0.37502369 -0.18567121 0.478398 16711680
0.3652463 -0.18576884 0.47844228 16711680
0.35507303 -0.18567842 0.47878718 16711680
0.34475952 -0.18583626 0.47882921 16711680
0.33495593 -0.18518823 0.47862101 16711680
0.32491979 -0.18511301 0.47890714 16711680
0.3151142 -0.18495005 0.47931644 16711680
0.30510789 -0.18507838 0.47960243 16711680
0.29505149 -0.18505377 0.47972918 16711680
0.28487936 -0.1856631 0.47961131 16711680
0.27508292 -0.18528038 0.47929189 16711680
0.26503709 -0.18572026 0.47936916 16711680
0.25511497 -0.18630016 0.47971821 16711680
