# .PCD v0.7 - Point Cloud Data file format
VERSION 0.7
FIELDS x y z rgba
SIZE 4 4 4 4
TYPE F F F U
COUNT 1 1 1 1
WIDTH 1132
HEIGHT 1
VIEWPOINT 0 0 0 1 0 0 0
POINTS 1132
DATA ascii
-0.13190776 -0.33011776 0.50104952 16711680
-0.13762048 -0.3304399 0.50102305 16711680
-0.14247328 -0.33028689 0.50094169 16711680
-0.1477526 -0.33048892 0.50130087 16711680
-0.15224609 -0.33005089 0.50117582 16711680
-0.1571779 -0.3297224 0.501082 16711680
-0.16227965 -0.32985416 0.50107116 16711680
-0.16777845 -0.33017829 0.50189078 16711680
-0.17259943 -0.32971224 0.50277561 16711680
-0.17725633 -0.32945397 0.50326753 16711680
-0.18231735 -0.32934028 0.50348389 16711680
-0.18757203 -0.32910788 0.50358677 16711680
-0.19255322 -0.32924563 0.50408483 16711680
-0.19786265 -0.3299056 0.50433457 16711680
-0.20266497 -0.32953548 0.50353098 16711680
-0.20719868 -0.32962832 0.50262791 16711680
-0.21235254 -0.32986686 0.50248027 16711680
-0.21770069 -0.32966354 0.50320274 16711680
-0.22258034 -0.3298057 0.50259864 16711680
-0.22583553 -0.32971743 0.50192893 16711680
-0.11877933 -0.33339921 0.50247085 16711680
-0.12111895 -0.33339921 0.50247085 16711680
-0.1686909 -0.33339921 0.50247085 16711680
-0.17287001 -0.33431706 0.50312066 16711680
-0.17740405 -0.33462271 0.50349885 16711680
-0.18208587 -0.33462271 0.50349885 16711680
-0.1872533 -0.33398858 0.50326955 16711680
-0.19272777 -0.33406109 0.50382942 16711680
-0.19776484 -0.33385736 0.50328058 16711680
-0.20144537 -0.33339921 0.50247085 16711680
-0.21392328 -0.33339921 0.50247085 16711680
-0.21824747 -0.33418533 0.50337416 16711680
-0.22260803 -0.33467394 0.50340027 16711680
-0.22562131 -0.33477637 0.50320309 16711680
0.18153811 -0.30084825 0.49478993 16711680
0.17892992 -0.30094069 0.4924607 16711680
0.33757243 -0.30548716 0.49782279 16711680
0.33282301 -0.30548716 0.49782279 16711680
0.2417929 -0.30548716 0.49782279 16711680
0.23704351 -0.30478823 0.49745122 16711680
0.23215674 -0.30503827 0.49701789 16711680
0.2274553 -0.30495495 0.49716231 16711680
0.22358689 -0.30548719 0.49782279 16711680
0.18273085 -0.3050164 0.49587366 16711680
0.17929506 -0.30470997 0.49287924 16711680
-0.1125368 -0.30459014 0.49621329 16711680
0.40248087 -0.30968061 0.50005257 16711680
0.39852303 -0.30968061 0.50005257 16711680
0.38664952 -0.30968061 0.50005257 16711680
0.38209334 -0.30903438 0.49890003 16711680
0.37742844 -0.30877671 0.49843928 16711680
0.37256688 -0.30887696 0.49861851 16711680
0.36761045 -0.3095983 0.49955574 16711680
0.36369413 -0.30968061 0.50005257 16711680
0.34627965 -0.30968061 0.50005257 16711680
0.34268814 -0.30870438 0.49896714 16711680
0.33764338 -0.30858752 0.49845204 16711680
0.3323825 -0.30877686 0.4984394 16711680
0.32787687 -0.30903438 0.49890003 16711680
0.32250023 -0.30964515 0.49873933 16711680
0.31736818 -0.30947486 0.4988105 16711680
0.31269446 -0.30939266 0.49895564 16711680
0.30754685 -0.30923408 0.49900618 16711680
0.30248281 -0.30931047 0.49910066 16711680
0.29792207 -0.30969694 0.49938163 16711680
0.29245317 -0.30968061 0.50005257 16711680
0.28770375 -0.30968061 0.50005257 16711680
0.28246975 -0.30945444 0.49964914 16711680
0.27750376 -0.30868638 0.49827805 16711680
0.27235734 -0.30910617 0.49785957 16711680
0.26784948 -0.30931145 0.49829897 16711680
0.26289293 -0.30962563 0.4990795 16711680
0.25762421 -0.30968061 0.50005257 16711680
0.25249702 -0.30922014 0.49958113 16711680
0.24768485 -0.30903438 0.49890003 16711680
0.24298607 -0.30894208 0.49814984 16711680
0.23774059 -0.30913296 0.49749616 16711680
0.23245049 -0.30942166 0.49730989 16711680
0.22729875 -0.30946141 0.49755749 16711680
0.22253563 -0.30877668 0.4984394 16711680
0.21796171 -0.30914614 0.49939075 16711680
0.21242422 -0.30914611 0.49939081 16711680
0.20738752 -0.30881259 0.49908766 16711680
0.20248562 -0.30922017 0.49958113 16711680
0.1974652 -0.30968064 0.50005257 16711680
0.19271579 -0.30968064 0.50005257 16711680
0.18751097 -0.30924645 0.49852732 16711680
0.18354103 -0.30958909 0.49637958 16711680
-0.1122448 -0.30927524 0.49757186 16711680
0.40176478 -0.31340361 0.4989579 16711680
0.39757469 -0.3133176 0.5000301 16711680
0.39238849 -0.31301227 0.50057817 16711680
0.38766131 -0.31351146 0.500148 16711680
0.38303071 -0.31364506 0.49904588 16711680
0.37771779 -0.31349072 0.49811438 16711680
0.37220362 -0.31292686 0.49815437 16711680
0.36734158 -0.31359333 0.49873522 16711680
0.36271083 -0.31345087 0.49979201 16711680
0.35738143 -0.31325591 0.50014132 16711680
0.35240826 -0.31315157 0.50065231 16711680
0.34748012 -0.31291136 0.50035465 16711680
0.34257349 -0.3136152 0.49950185 16711680
0.33778819 -0.31388211 0.49856523 16711680
0.33248869 -0.31362495 0.49810484 16711680
0.32734871 -0.31349072 0.49811438 16711680
0.32262662 -0.31349069 0.49811444 16711680
0.31811336 -0.31255099 0.49818102 16711680
0.31259969 -0.31255099 0.49818102 16711680
0.30698615 -0.31302086 0.49814764 16711680
0.30188882 -0.31330276 0.49812767 16711680
0.29776156 -0.31308246 0.49884108 16711680
0.29245651 -0.31322217 0.49955729 16711680
0.28758001 -0.31320027 0.50056481 16711680
0.28239173 -0.31333914 0.49959102 16711680
0.27737346 -0.31314355 0.49792978 16711680
0.26747882 -0.31287822 0.49759993 16711680
0.26257217 -0.31307626 0.49862221 16711680
0.25723529 -0.31373179 0.49893472 16711680
0.2521036 -0.31300104 0.49898657 16711680
0.24712355 -0.31340888 0.49825963 16711680
0.24281728 -0.31302086 0.49814764 16711680
0.23767717 -0.31271458 0.49789044 16711680
0.23276803 -0.31304184 0.49730942 16711680
0.22746363 -0.31267372 0.49796316 16711680
0.22239257 -0.31348506 0.49835411 16711680
0.217292 -0.31394041 0.49891976 16711680
0.21270099 -0.31366974 0.49940512 16711680
0.20799714 -0.31361544 0.49950209 16711680
0.20270595 -0.31345934 0.49948767 16711680
0.19717096 -0.31398144 0.49916813 16711680
0.1922269 -0.31291926 0.49913183 16711680
0.18759549 -0.31330279 0.49812767 16711680
-0.11178988 -0.31343895 0.50046527 16711680
-0.12776212 -0.31357029 0.50174314 16711680
-0.13245508 -0.31341836 0.50147361 16711680
-0.13776314 -0.31352469 0.50209647 16711680
-0.14290832 -0.31387416 0.50228226 16711680
-0.14765772 -0.31387416 0.50228226 16711680
-0.15240712 -0.31387416 0.50228226 16711680
0.39711878 -0.31720772 0.49952444 16711680
0.39280546 -0.31684476 0.50018096 16711680
0.38725156 -0.31688508 0.500108 16711680
0.35701403 -0.31720772 0.49952444 16711680
0.3522588 -0.31719193 0.50036556 16711680
0.34804469 -0.31672379 0.50039977 16711680
0.34301341 -0.31704643 0.49981621 16711680
0.29095918 -0.31720772 0.49952444 16711680
0.28716367 -0.31709832 0.50037235 16711680
0.28309554 -0.31720772 0.49952444 16711680
-0.11227608 -0.31828088 0.50247347 16711680
-0.11739832 -0.31919256 0.50443059 16711680
-0.1228807 -0.31854531 0.50363338 16711680
-0.12752618 -0.31819686 0.50215381 16711680
-0.13254073 -0.31795347 0.50143105 16711680
-0.13750631 -0.3183434 0.50137413 16711680
-0.14230557 -0.31876838 0.50158125 16711680
-0.14732328 -0.31871432 0.50180656 16711680
-0.15252528 -0.31845802 0.50201881 16711680
-0.15776238 -0.31812638 0.50274992 16711680
-0.162499 -0.31812635 0.50274998 16711680
-0.16730031 -0.31804648 0.50289625 16711680
-0.17240165 -0.31808659 0.50282323 16711680
-0.17741431 -0.31897211 0.50318074 16711680
-0.18238018 -0.31881127 0.50314552 16711680
-0.18761134 -0.31854561 0.5036335 16711680
-0.19242167 -0.31853989 0.50411588 16711680
-0.19794932 -0.31843495 0.50420392 16711680
-0.202777 -0.31793118 0.50409961 16711680
-0.20766741 -0.31822661 0.50421906 16711680
-0.21224955 -0.31890631 0.50495791 16711680
-0.21731555 -0.31946546 0.50525522 16711680
-0.22306696 -0.31931794 0.50442171 16711680
-0.22745404 -0.31854919 0.50329566 16711680
-0.23107678 -0.31784806 0.5032627 16711680
-0.11333172 -0.32306701 0.50301743 16711680
-0.11788897 -0.32274771 0.50392634 16711680
-0.1224312 -0.32287213 0.50310254 16711680
-0.16906559 -0.32276234 0.50247788 16711680
-0.17312945 -0.32260412 0.50277126 16711680
-0.17827088 -0.32303298 0.50330132 16711680
-0.18263833 -0.3232193 0.50328714 16711680
-0.18739021 -0.32348329 0.50350839 16711680
-0.19239005 -0.32357275 0.50429302 16711680
-0.19726077 -0.32341528 0.50458688 16711680
-0.2024388 -0.3236751 0.5044046 16711680
-0.20727599 -0.32314479 0.50413746 16711680
-0.21221441 -0.32274565 0.50416791 16711680
-0.21707696 -0.3235715 0.50429237 16711680
-0.22181121 -0.32297805 0.50414985 16711680
-0.22616449 -0.32228759 0.50335807 16711680
-0.19737482 -0.32692829 0.50469297 16711680
-0.20130664 -0.32692829 0.50469297 16711680
0.40629038 -0.3020789 0.50054097 16711680
0.40262511 -0.30221915 0.50061554 16711680
0.39752662 -0.30207852 0.50054073 16711680
0.39268687 -0.3021346 0.50044465 16711680
0.3874974 -0.30252656 0.49977222 16711680
0.38249278 -0.30274901 0.49938717 16711680
0.37747201 -0.30254009 0.49942705 16711680
0.37258813 -0.30258036 0.49967495 16711680
0.36787236 -0.30216104 0.50068754 16711680
0.36279202 -0.30244908 0.5014928 16711680
0.3581658 -0.30228242 0.5017817 16711680
0.35260338 -0.30194142 0.5011757 16711680
0.34763992 -0.30256847 0.50009334 16711680
0.34252441 -0.30303439 0.49850067 16711680
0.33722714 -0.30288693 0.49757287 16711680
0.3320381 -0.30287272 0.49799004 16711680
0.32761312 -0.30308315 0.49880973 16711680
0.32258347 -0.30308327 0.4988099 16711680
0.31758949 -0.3029224 0.4994038 16711680
0.31230485 -0.30217859 0.5000791 16711680
0.30749083 -0.30278242 0.50091499 16711680
0.30271021 -0.30278242 0.50091499 16711680
0.29753461 -0.30295449 0.50084472 16711680
0.29239506 -0.30202276 0.50063688 16711680
0.28749201 -0.30219015 0.50034833 16711680
0.28247744 -0.30252481 0.49977121 16711680
0.27734482 -0.30243918 0.49959984 16711680
0.27224711 -0.30274752 0.49938628 16711680
0.26755035 -0.30263638 0.49957898 16711680
0.262362 -0.30266339 0.49982199 16711680
0.25708675 -0.30241415 0.49996409 16711680
0.25210798 -0.3027488 0.499387 16711680
0.24703971 -0.30325085 0.49852136 16711680
0.24218039 -0.30271876 0.497861 16711680
0.23732601 -0.30218688 0.49720058 16711680
0.23256882 -0.30218691 0.49720058 16711680
0.2278116 -0.30218691 0.49720058 16711680
0.22255532 -0.30287275 0.49799004 16711680
0.21758157 -0.30311984 0.49903521 16711680
0.21230285 -0.3028605 0.49919465 16711680
0.20745583 -0.30302739 0.49890587 16711680
0.20268317 -0.30218893 0.50003314 16711680
0.19759157 -0.30265775 0.50113177 16711680
0.19173637 -0.30231732 0.50052613 16711680
0.18757647 -0.30308318 0.49880973 16711680
0.18499684 -0.30218691 0.49720058 16711680
-0.11672477 -0.30234152 0.50136018 16711680
-0.12226947 -0.30298713 0.50215638 16711680
-0.12705787 -0.30298713 0.50215638 16711680
-0.13184623 -0.30298713 0.50215638 16711680
-0.13503851 -0.30298713 0.50215638 16711680
0.40541363 -0.3070873 0.4998062 16711680
0.40251854 -0.30683842 0.50024021 16711680
0.3973183 -0.3071444 0.50059164 16711680
0.39267471 -0.30734545 0.50095028 16711680
0.38805881 -0.30747104 0.50019908 16711680
0.38400623 -0.30638725 0.49943396 16711680
0.37132037 -0.30638725 0.49943396 16711680
0.36697364 -0.30643919 0.50040543 16711680
0.36229157 -0.30711517 0.50095367 16711680
0.35767004 -0.30714193 0.50130761 16711680
0.35282063 -0.3072283 0.50115538 16711680
0.3479889 -0.3075501 0.50019395 16711680
0.32691988 -0.30638725 0.49943396 16711680
0.32295555 -0.30638725 0.49943396 16711680
0.31740549 -0.30638725 0.49943396 16711680
0.31185544 -0.30638725 0.49943396 16711680
0.30709821 -0.30638725 0.49943396 16711680
0.30246985 -0.30622134 0.49972335 16711680
0.29710695 -0.30643919 0.50040543 16711680
0.29235935 -0.30710292 0.5004617 16711680
0.28745812 -0.30683842 0.50024021 16711680
0.28331223 -0.3070873 0.4998062 16711680
0.26666206 -0.30638725 0.49943396 16711680
0.26230127 -0.30673727 0.49962005 16711680
0.25804549 -0.30692139 0.50009561 16711680
0.25286618 -0.30666727 0.49958286 16711680
0.24842612 -0.30638725 0.49943396 16711680
0.21702863 -0.3066673 0.49958286 16711680
0.21195428 -0.30638728 0.49943396 16711680
0.20561136 -0.30638728 0.49943396 16711680
0.20209914 -0.30661288 0.49983707 16711680
0.19786353 -0.30667257 0.50052953 16711680
0.19306575 -0.30675548 0.50038493 16711680
0.18896118 -0.30638728 0.49943396 16711680
-0.11715229 -0.30635539 0.50268894 16711680
-0.12234312 -0.30634162 0.50303388 16711680
-0.12752949 -0.3065325 0.50208521 16711680
-0.13255639 -0.30703267 0.50190067 16711680
-0.13738462 -0.30635199 0.5030961 16711680
-0.14290665 -0.30667472 0.50373966 16711680
-0.14774935 -0.30659255 0.50388461 16711680
-0.15241875 -0.30675688 0.50359458 16711680
-0.15680486 -0.30710921 0.50378191 16711680
-0.16217272 -0.30721501 0.50440437 16711680
-0.16696112 -0.30721501 0.50440437 16711680
-0.17294978 -0.30690959 0.50386453 16711680
-0.17763664 -0.30698597 0.50399941 16711680
-0.18132629 -0.30721501 0.50440437 16711680
-0.1885089 -0.30721501 0.50440437 16711680
-0.19272885 -0.30676597 0.5031746 16711680
-0.19739076 -0.3062996 0.50278509 16711680
-0.20185804 -0.30628711 0.50334477 16711680
-0.20686436 -0.30721501 0.50440437 16711680
-0.21245083 -0.30721501 0.50440437 16711680
-0.21803731 -0.30721501 0.50440437 16711680
-0.11470653 -0.31478801 0.50390071 16711680
-0.11733754 -0.31202853 0.50408882 16711680
-0.12235436 -0.31178352 0.50352293 16711680
-0.12707415 -0.31081498 0.50207138 16711680
-0.13214959 -0.31058767 0.50166732 16711680
-0.13704023 -0.31095138 0.50231379 16711680
-0.14205967 -0.31071544 0.50305665 16711680
-0.14722048 -0.3108972 0.50296456 16711680
-0.15232565 -0.31079689 0.50291121 16711680
-0.15735638 -0.31149766 0.50328392 16711680
-0.16263045 -0.3109656 0.50390702 16711680
-0.16766968 -0.31117123 0.50386524 16711680
-0.17232499 -0.31187981 0.50348705 16711680
-0.17770338 -0.31191167 0.50401878 16711680
-0.1826009 -0.31191349 0.50428903 16711680
-0.18750942 -0.31191301 0.50416523 16711680
-0.19228426 -0.31210297 0.50336301 16711680
-0.19734347 -0.3124837 0.50314742 16711680
-0.20224029 -0.31214035 0.50331664 16711680
-0.20743707 -0.31228444 0.50387639 16711680
-0.21240479 -0.31160805 0.50426912 16711680
-0.21739537 -0.31183526 0.50468302 16711680
-0.22255912 -0.31142652 0.50503922 16711680
-0.22728109 -0.31211266 0.50484633 16711680
-0.23202595 -0.31207252 0.50504565 16711680
-0.117878 -0.31653816 0.50483131 16711680
-0.12104946 -0.31618813 0.50464517 16711680
-0.19399315 -0.31618813 0.50464517 16711680
-0.19637173 -0.31618813 0.50464517 16711680
-0.21341836 -0.31653816 0.50483131 16711680
-0.21785596 -0.3168079 0.50516355 16711680
-0.22231293 -0.31665185 0.50511831 16711680
-0.11872688 -0.30011737 0.50232935 16711680
-0.13753296 -0.30033219 0.50315148 16711680
-0.17776206 -0.30001375 0.50409901 16711680
-0.19251379 -0.30016038 0.5041644 16711680
-0.19726193 -0.30034763 0.50352144 16711680
-0.20235965 -0.30001324 0.50409871 16711680
-0.2074388 -0.30003503 0.5053435 16711680
-0.21184856 -0.30098701 0.50562322 16711680
-0.21762374 -0.30034676 0.50566024 16711680
-0.22309422 -0.30098701 0.50562322 16711680
-0.22734752 -0.30073702 0.50605649 16711680
-0.23401973 -0.30048698 0.50648987 16711680
-0.23594648 -0.30098701 0.50562322 16711680
-0.13856176 -0.30389869 0.50377363 16711680
-0.14255857 -0.30389869 0.50377363 16711680
-0.14815415 -0.30389869 0.50377363 16711680
-0.15295033 -0.30389869 0.50377363 16711680
-0.15821165 -0.30426425 0.50442106 16711680
-0.1628506 -0.30418971 0.5048722 16711680
-0.16759034 -0.30427265 0.50472754 16711680
-0.17189194 -0.30436376 0.50424749 16711680
-0.17733096 -0.30425158 0.50396127 16711680
-0.18252793 -0.30488497 0.50486434 16711680
-0.18728086 -0.30452216 0.50509614 16711680
-0.1914579 -0.30373275 0.50406301 16711680
-0.20331031 -0.30389869 0.50377363 16711680
-0.20767659 -0.30418968 0.50487226 16711680
-0.21255392 -0.30410671 0.50501686 16711680
-0.21735793 -0.30410671 0.50501686 16711680
-0.22253942 -0.30497846 0.50510281 16711680
-0.22740337 -0.30438864 0.50573301 16711680
-0.23248264 -0.30480674 0.50569808 16711680
-0.23545951 -0.30290323 0.5055095 16711680
-0.22889 -0.30813348 0.50602525 16711680
-0.23288682 -0.30813348 0.50602525 16711680
0.19432232 -0.068457559 0.50043869 65280
-0.035579726 -0.064092159 0.50275981 65280
-0.034343697 -0.064092159 0.50275981 65280
-0.0015888343 -0.064092159 0.50275981 65280
0.0021192632 -0.064092159 0.50275981 65280
0.0058273599 -0.064092159 0.50275981 65280
0.013861571 -0.064092159 0.50275981 65280
0.016951652 -0.064092159 0.50275981 65280
0.022359295 -0.064501405 0.5025422 65280
0.028075945 -0.064092159 0.50275981 65280
0.033020075 -0.064092159 0.50275981 65280
0.038335014 -0.064310431 0.50264376 65280
0.04290833 -0.06463781 0.50246966 65280
0.047440451 -0.064455912 0.5025664 65280
0.052796595 -0.064092159 0.50275981 65280
0.057740722 -0.064092159 0.50275981 65280
0.063096866 -0.064455912 0.5025664 65280
0.067628987 -0.064637825 0.50246966 65280
0.072161101 -0.064455912 0.5025664 65280
0.077517241 -0.064092159 0.50275981 65280
0.082873389 -0.064455912 0.5025664 65280
0.08754874 -0.064411372 0.50221252 65280
0.09220352 -0.06453757 0.50167358 65280
0.097281262 -0.064415619 0.50152194 65280
0.10230787 -0.064408988 0.50172019 65280
0.10736617 -0.063958496 0.50169837 65280
0.11207893 -0.064069688 0.50174218 65280
0.11694702 -0.064426392 0.50233048 65280
0.12201441 -0.064092159 0.50275981 65280
0.12695855 -0.064092159 0.50275981 65280
0.13252069 -0.064092159 0.50275981 65280
0.13855323 -0.064025298 0.50222909 65280
0.14303172 -0.064203173 0.5017947 65280
0.14763884 -0.064494878 0.5013423 65280
0.15247132 -0.064452767 0.50101084 65280
0.15746477 -0.064478427 0.5012095 65280
0.1626523 -0.064421713 0.50167847 65280
0.16739435 -0.064924672 0.50197738 65280
0.17270274 -0.064966485 0.50169092 65280
0.17750823 -0.064431533 0.5016467 65280
0.18268432 -0.06469588 0.50157273 65280
0.18739729 -0.065093875 0.50147218 65280
0.19250304 -0.065213457 0.50144827 65280
0.1973767 -0.064996719 0.50114626 65280
0.20242195 -0.06504871 0.50111854 65280
0.20745824 -0.065042302 0.50106812 65280
0.21253124 -0.065084577 0.50139761 65280
0.21756837 -0.064851835 0.5016008 65280
0.22027899 -0.066274896 0.50159931 65280
-0.18699369 -0.059726745 0.50508094 65280
-0.1826676 -0.05972676 0.505081 65280
-0.17525139 -0.059726745 0.50508094 65280
-0.17174931 -0.060090512 0.50488752 65280
-0.1672172 -0.060272411 0.50479078 65280
-0.16227305 -0.060272411 0.50479078 65280
-0.15732893 -0.059726745 0.50508094 65280
-0.1523848 -0.059726745 0.50508094 65280
-0.14744066 -0.059726745 0.50508094 65280
-0.11592184 -0.059726745 0.50508094 65280
-0.11224672 -0.060519293 0.50415617 65280
-0.10774553 -0.061283574 0.50354528 65280
-0.10356151 -0.060818121 0.50450069 65280
-0.09243723 -0.060818121 0.50450069 65280
-0.087493084 -0.061363786 0.50421053 65280
-0.081887074 -0.061331674 0.5039444 65280
-0.076986812 -0.061363757 0.50421053 65280
-0.072454698 -0.061181858 0.50430721 65280
-0.067098558 -0.060818106 0.50450069 65280
-0.062154423 -0.060818106 0.50450069 65280
-0.057210293 -0.060818106 0.50450069 65280
-0.052266166 -0.060818106 0.50450069 65280
-0.047322035 -0.060818106 0.50450069 65280
-0.042171899 -0.06154567 0.50411379 65280
-0.037407447 -0.061866686 0.50356561 65280
-0.032645259 -0.061786905 0.50377965 65280
-0.027957527 -0.061181873 0.50430721 65280
-0.022595914 -0.061347723 0.50407749 65280
-0.017644839 -0.061866671 0.50356561 65280
-0.012919132 -0.06154567 0.50411379 65280
-0.0075579626 -0.061502889 0.50375903 65280
-0.0028197297 -0.061791092 0.50294513 65280
0.0021147921 -0.061780393 0.50285649 65280
0.0070565934 -0.061845109 0.50338829 65280
0.011755771 -0.062102079 0.50359148 65280
0.0172744 -0.062321931 0.50307184 65280
0.02275037 -0.06241338 0.50277156 65280
0.028024605 -0.062340274 0.50270033 65280
0.032923799 -0.062274665 0.50216895 65280
0.037844066 -0.06225805 0.50203621 65280
0.042807635 -0.062307328 0.50243473 65280
0.047801986 -0.062389806 0.50309873 65280
0.052683901 -0.062323943 0.50256747 65280
0.05760482 -0.062307626 0.50243461 65280
0.062552281 -0.06232366 0.50256759 65280
0.067521319 -0.062356591 0.50283325 65280
0.072496556 -0.062389791 0.50309867 65280
0.077435471 -0.062389791 0.50309867 65280
0.082264513 -0.062307328 0.50243473 65280
0.086851418 -0.062170938 0.50200164 65280
0.092495359 -0.061595961 0.50136888 65280
0.09790618 -0.061517611 0.50073099 65280
0.10343312 -0.061517626 0.50073105 65280
0.10784753 -0.061582908 0.50126255 65280
0.11330172 -0.061892137 0.50189096 65280
0.1181784 -0.062170938 0.50200164 65280
0.12272687 -0.062246233 0.50260878 65280
0.12744133 -0.062389821 0.50309867 65280
0.13231033 -0.062493011 0.50276071 65280
0.1371748 -0.062867895 0.50227821 65280
0.14149179 -0.062867895 0.50227821 65280
0.1673937 -0.062867895 0.50227821 65280
0.17109399 -0.062867895 0.50227821 65280
0.19082877 -0.062867895 0.50227821 65280
0.17317291 -0.079891339 0.49973899 65280
0.17681296 -0.079954743 0.49976188 65280
0.18249321 -0.080047995 0.49952695 65280
0.18721987 -0.080581546 0.49930668 65280
0.19158401 -0.080575958 0.49965811 65280
0.20199293 -0.080208316 0.49985355 65280
0.20742053 -0.079767287 0.49958467 65280
0.21221626 -0.080139324 0.49941835 65280
0.21647117 -0.080342293 0.49962056 65280
-0.083419733 -0.075796857 0.50219917 65280
-0.076549843 -0.075796872 0.50219917 65280
-0.072802626 -0.075796872 0.50219917 65280
-0.067389987 -0.076164499 0.50200373 65280
-0.06259416 -0.076067433 0.50173175 65280
-0.05808048 -0.07672137 0.50148118 65280
-0.053858388 -0.076532111 0.50180829 65280
-0.042433109 -0.075545132 0.50210655 65280
-0.03780232 -0.075744897 0.50184935 65280
-0.03329483 -0.07562232 0.50191438 65280
-0.028460616 -0.075796857 0.50219917 65280
-0.020966191 -0.075796872 0.50219917 65280
-0.017427158 -0.076164499 0.50200373 65280
-0.012847231 -0.076348305 0.50190604 65280
-0.0078509478 -0.075796872 0.50219917 65280
-0.0024799439 -0.076017439 0.50208187 65280
0.0021416182 -0.076348305 0.50190604 65280
0.0067215436 -0.076164499 0.50200373 65280
0.012134183 -0.075796872 0.50219917 65280
0.017546825 -0.076164499 0.50200373 65280
0.022103218 -0.075718492 0.50167453 65280
0.026908999 -0.076147154 0.50188708 65280
0.03024571 -0.075796872 0.50219917 65280
0.047108166 -0.075796872 0.50219917 65280
0.052104447 -0.075796872 0.50219917 65280
0.056866065 -0.075884759 0.50190079 65280
0.062097013 -0.075796872 0.50219917 65280
0.072692052 -0.07593216 0.50196552 65280
0.077032216 -0.075744867 0.50184929 65280
0.081429698 -0.075770915 0.50202429 65280
0.092659503 -0.075545132 0.50210655 65280
0.097418934 -0.075744867 0.50184929 65280
0.10179962 -0.076269537 0.50194788 65280
0.10685539 -0.075796857 0.50219917 65280
0.11243457 -0.076017439 0.50208187 65280
0.11705613 -0.076348305 0.50190604 65280
0.12237035 -0.076147154 0.50188708 65280
0.1273758 -0.075744852 0.50184923 65280
0.13236856 -0.075744867 0.50184929 65280
0.13704126 -0.076348305 0.50190604 65280
0.14224569 -0.076991633 0.50156391 65280
0.14703383 -0.077451184 0.50131959 65280
0.15182193 -0.076532096 0.50180823 65280
0.15781792 -0.07562235 0.50191444 65280
0.16235968 -0.076251268 0.50149125 65280
0.16734876 -0.076768532 0.50117922 65280
0.17243472 -0.076810196 0.50102019 65280
0.17784707 -0.076478302 0.50057846 65280
0.18253306 -0.076286584 0.50033993 65280
0.18768845 -0.076120302 0.50039923 65280
0.19254854 -0.07670854 0.50076067 65280
0.19746862 -0.076841936 0.50122625 65280
0.20242205 -0.076834232 0.50082392 65280
0.20728664 -0.076230362 0.49997014 65280
0.2121494 -0.075960845 0.49935126 65280
0.21764921 -0.076451808 0.50040382 65280
0.22147073 -0.076985583 0.50074345 65280
-0.27140486 -0.071385413 0.50454479 65280
-0.2682822 -0.071385413 0.50454479 65280
-0.22706287 -0.071385413 0.50454479 65280
-0.22195101 -0.071348742 0.5042811 65280
-0.21754335 -0.071336508 0.50419325 65280
-0.21243985 -0.07129927 0.50392991 65280
-0.20752127 -0.07132414 0.50410551 65280
-0.20252061 -0.071872249 0.50379044 65280
-0.19795042 -0.071775779 0.50407588 65280
-0.19271341 -0.071385413 0.50454479 65280
-0.18710226 -0.071054697 0.50429595 65280
-0.1825937 -0.071336523 0.50419325 65280
-0.1775341 -0.071498498 0.50404912 65280
-0.17234287 -0.071985781 0.5033595 65280
-0.16745186 -0.072369516 0.50311548 65280
-0.16248074 -0.072376892 0.50316823 65280
-0.157695 -0.072160691 0.50350338 65280
-0.15258372 -0.071862936 0.50372463 65280
-0.14759263 -0.071862951 0.50372463 65280
-0.14280094 -0.071637303 0.50392544 65280
-0.13761051 -0.070760623 0.50431067 65280
-0.13261944 -0.070760608 0.50431067 65280
-0.12767282 -0.071336508 0.50419319 65280
-0.12246491 -0.071576655 0.50421661 65280
-0.11768723 -0.071336538 0.50419331 65280
-0.11269441 -0.071336508 0.50419319 65280
-0.10753389 -0.071658611 0.50407594 65280
-0.1027132 -0.071890891 0.50392216 65280
-0.097733006 -0.071900204 0.50398797 65280
-0.092760079 -0.072152272 0.50397527 65280
-0.087625541 -0.072317764 0.50363177 65280
-0.082709007 -0.072414026 0.50343162 65280
-0.077701472 -0.072398901 0.50332642 65280
-0.07273405 -0.072421566 0.50348419 65280
-0.067721799 -0.072398752 0.50332642 65280
-0.062654912 -0.07175903 0.50300127 65280
-0.057540443 -0.072076991 0.50291866 65280
-0.052778441 -0.072436497 0.50358951 65280
-0.047799036 -0.07221061 0.50385433 65280
-0.042862982 -0.072270244 0.50329942 65280
-0.037681054 -0.071656868 0.50227696 65280
-0.032596927 -0.071826875 0.50224483 65280
-0.027783388 -0.072354391 0.50301021 65280
-0.0228041 -0.07237713 0.50316811 65280
-0.017811917 -0.072361842 0.50306296 65280
-0.012831137 -0.072398856 0.50332636 65280
-0.0078388499 -0.072376892 0.50316823 65280
-0.0028498974 -0.072369531 0.50311548 65280
0.0021381993 -0.072376177 0.50316858 65280
0.0071307109 -0.072414026 0.50343162 65280
0.012117261 -0.072391793 0.50327361 65280
0.017089143 -0.072316438 0.5027473 65280
0.022028262 -0.071619585 0.50201362 65280
0.027151218 -0.072183698 0.50268972 65280
0.031552099 -0.072208419 0.50365418 65280
0.037724115 -0.071686953 0.50415796 65280
0.042332303 -0.072103262 0.50369674 65280
0.047014542 -0.072346956 0.50295764 65280
0.052258458 -0.07216154 0.50279361 65280
0.057480786 -0.072027668 0.50256735 65280
0.062412541 -0.072279632 0.50248373 65280
0.067321211 -0.072405517 0.50292945 65280
0.072188668 -0.07211408 0.50257176 65280
0.077395089 -0.071647689 0.50221103 65280
0.082357295 -0.072244868 0.50270355 65280
0.087154567 -0.072347388 0.50295734 65280
0.092479564 -0.072320044 0.50276738 65280
0.097973444 -0.071685344 0.50247407 65280
0.10289988 -0.072152555 0.50246787 65280
0.10774624 -0.072279602 0.50248373 65280
0.11272793 -0.072279632 0.50248373 65280
0.117759 -0.072308987 0.50269467 65280
0.12278118 -0.072331339 0.50285262 65280
0.12776175 -0.071638077 0.50214535 65280
0.13277276 -0.071656838 0.50227696 65280
0.1377939 -0.072155043 0.503003 65280
0.14262879 -0.072405636 0.50297767 65280
0.14761692 -0.072082743 0.50228637 65280
0.15244426 -0.071647793 0.50218737 65280
0.1573875 -0.071391478 0.50227642 65280
0.16252083 -0.071495205 0.5023545 65280
0.16754374 -0.071628869 0.50207937 65280
0.1726433 -0.071126938 0.50182098 65280
0.17752759 -0.070888102 0.50141156 65280
0.18250842 -0.071013749 0.50146389 65280
0.18738221 -0.070859626 0.50121093 65280
0.19231291 -0.071024209 0.5011006 65280
0.19743767 -0.070918366 0.50122541 65280
0.20250697 -0.070956066 0.50148857 65280
0.20727718 -0.070887774 0.50101531 65280
0.21228495 -0.070861518 0.50083226 65280
0.21749406 -0.070903137 0.50112027 65280
0.22105221 -0.071474522 0.50158507 65280
-0.27161312 -0.067973703 0.50552827 65280
-0.26732203 -0.067992836 0.50566906 65280
-0.26265594 -0.067533746 0.50609726 65280
-0.2572858 -0.067312837 0.50601327 65280
-0.25251821 -0.067610607 0.50556093 65280
-0.24757567 -0.067915797 0.50508714 65280
-0.24261947 -0.067617372 0.50517726 65280
-0.23755646 -0.067403942 0.50567085 65280
-0.23246641 -0.067573309 0.50563908 65280
-0.22753218 -0.067958266 0.50540435 65280
-0.22258976 -0.067675903 0.5052588 65280
-0.2175149 -0.067365855 0.5050965 65280
-0.2128516 -0.067107245 0.50471628 65280
-0.2081331 -0.067261532 0.504614 65280
-0.20291993 -0.067341194 0.50443 65280
-0.19740126 -0.067349106 0.50482231 65280
-0.19229116 -0.067929566 0.50519311 65280
-0.18725127 -0.067481309 0.50495511 65280
-0.18200591 -0.067261532 0.504614 65280
-0.17715618 -0.067373022 0.50456411 65280
-0.17239618 -0.067153916 0.50380152 65280
-0.16775432 -0.066815138 0.503703 65280
-0.16260274 -0.067185402 0.50377995 65280
-0.15755564 -0.067211866 0.50449878 65280
-0.15228724 -0.06714727 0.50453311 65280
-0.14712995 -0.067243502 0.50448203 65280
-0.14231832 -0.067372575 0.50456434 65280
-0.13722655 -0.067081437 0.50403506 65280
-0.13215101 -0.067218542 0.50428289 65280
-0.12727772 -0.067271292 0.50467956 65280
-0.12254848 -0.067636967 0.50496495 65280
-0.11735485 -0.067289054 0.5048117 65280
-0.11225152 -0.067076012 0.50450432 65280
-0.10736887 -0.067271844 0.5046792 65280
-0.10243132 -0.067297637 0.50487787 65280
-0.097503178 -0.067332625 0.50514245 65280
-0.092518926 -0.067637205 0.50496477 65280
-0.087425247 -0.067245334 0.50448096 65280
-0.082328752 -0.066599205 0.50403166 65280
-0.077516258 -0.067025468 0.5041315 65280
-0.072488904 -0.06723617 0.50441504 65280
-0.067576304 -0.067297935 0.50487775 65280
-0.062507555 -0.067200512 0.50415087 65280
-0.057603661 -0.066992447 0.50388265 65280
-0.052575547 -0.067218855 0.50428277 65280
-0.0476465 -0.067280725 0.50474524 65280
-0.042553101 -0.066716656 0.50398707 65280
-0.037648153 -0.066597462 0.50309676 65280
-0.032496203 -0.066604793 0.50315237 65280
-0.027652696 -0.066534981 0.50355613 65280
-0.022690054 -0.066535383 0.50355601 65280
-0.017722247 -0.066521585 0.50344992 65280
-0.012767913 -0.066563442 0.50376755 65280
-0.0078014135 -0.066549957 0.50366157 65280
-0.0029736364 -0.066776767 0.50340873 65280
0.002127972 -0.067086741 0.50329119 65280
0.0072291666 -0.066784546 0.50346756 65280
0.011954862 -0.066642627 0.50343043 65280
0.017005298 -0.067033097 0.50289482 65280
0.021912005 -0.067395404 0.50257152 65280
0.027109357 -0.066940755 0.50297725 65280
0.032355767 -0.067341745 0.50389677 65280
0.037224274 -0.067570567 0.50389075 65280
0.042828683 -0.067702994 0.50284362 65280
0.048174001 -0.067257389 0.50269473 65280
0.052963667 -0.067033127 0.50289488 65280
0.057923451 -0.067033082 0.50289488 65280
0.062677935 -0.067237109 0.50254375 65280
0.067842558 -0.067580134 0.50260407 65280
0.072946914 -0.067237094 0.50254375 65280
0.077742435 -0.067015365 0.50276273 65280
0.082545087 -0.067267522 0.50277019 65280
0.087651365 -0.067556456 0.50242788 65280
0.092641875 -0.068127394 0.50231314 65280
0.097601652 -0.068127364 0.50231308 65280
0.10278758 -0.067784846 0.50238198 65280
0.10748351 -0.067556441 0.50242788 65280
0.11244155 -0.067556441 0.50242788 65280
0.11746165 -0.06759198 0.5026921 65280
0.1224492 -0.067059636 0.50309312 65280
0.1273603 -0.067033112 0.50289488 65280
0.13235453 -0.067050591 0.50302714 65280
0.13733423 -0.067060202 0.50309289 65280
0.14236395 -0.067639917 0.50304413 65280
0.14669573 -0.067835912 0.50232649 65280
0.15199918 -0.067508325 0.50207597 65280
0.15695374 -0.067508325 0.50207597 65280
0.16219145 -0.067835897 0.50232649 65280
0.16772254 -0.067759663 0.50235415 65280
0.17208493 -0.068003565 0.50226569 65280
0.17801063 -0.067508325 0.50207597 65280
0.18234587 -0.06750831 0.50207603 65280
0.18730043 -0.067508325 0.50207597 65280
0.21640848 -0.067508325 0.50207597 65280
-0.27114159 -0.063071236 0.5067004 65280
-0.26737705 -0.062904254 0.50752199 65280
-0.26250535 -0.062754363 0.50713027 65280
-0.25752977 -0.062776938 0.50621974 65280
-0.25245327 -0.062294573 0.50604028 65280
-0.24784958 -0.062635794 0.50646555 65280
-0.24265306 -0.062785268 0.50628614 65280
-0.23752622 -0.062743947 0.50595409 65280
-0.23271182 -0.06278567 0.50628591 65280
-0.22743039 -0.062294468 0.50604039 65280
-0.22237381 -0.062126517 0.50567365 65280
-0.21743555 -0.062133327 0.50572675 65280
-0.21245153 -0.062126532 0.50567371 65280
-0.20759866 -0.0621593 0.50593936 65280
-0.20252886 -0.062126175 0.50567377 65280
-0.19754653 -0.062119782 0.50562066 65280
-0.19258572 -0.062119797 0.50562066 65280
-0.18758544 -0.062653825 0.50522327 65280
-0.18254982 -0.062504724 0.50540257 65280
-0.17781284 -0.062239543 0.50559264 65280
-0.17285749 -0.062878832 0.50502288 65280
-0.16751638 -0.062942028 0.50473046 65280
-0.16275771 -0.063189864 0.50484395 65280
-0.15786795 -0.062670216 0.50535619 65280
-0.1527878 -0.062793359 0.50551564 65280
-0.14785586 -0.062575102 0.50552952 65280
-0.14300731 -0.062132567 0.50572699 65280
-0.13761637 -0.06258212 0.50577384 65280
-0.13192654 -0.06271863 0.50575519 65280
-0.12696156 -0.062718615 0.50575519 65280
-0.12204519 -0.062743813 0.50595421 65280
-0.11734238 -0.062473133 0.50553179 65280
-0.1130796 -0.063057274 0.50482011 65280
-0.10709046 -0.063515916 0.50465184 65280
-0.10183667 -0.062878832 0.50502288 65280
-0.097069539 -0.062653869 0.50522333 65280
-0.092252254 -0.063282311 0.50473481 65280
-0.087149993 -0.063748181 0.50464159 65280
-0.082103789 -0.063133717 0.50440204 65280
-0.07695286 -0.063660368 0.50460732 65280
-0.072007738 -0.063406542 0.50471002 65280
-0.067310877 -0.063200921 0.50493252 65280
-0.062329262 -0.063178793 0.5047555 65280
-0.057194646 -0.063071147 0.50474405 65280
-0.052413184 -0.063178763 0.5047555 65280
-0.047455147 -0.063178733 0.50475544 65280
-0.043109305 -0.063440949 0.50452179 65280
-0.030700229 -0.063133717 0.50440204 65280
-0.027190745 -0.062769145 0.50459582 65280
-0.022649068 -0.063133717 0.50440204 65280
-0.012120627 -0.063133717 0.50440204 65280
-0.0084047075 -0.063133717 0.50440204 65280
-0.27080366 -0.059399843 0.50723672 65280
-0.26736227 -0.059462294 0.50776988 65280
-0.26239598 -0.059462264 0.50776982 65280
-0.25755852 -0.059509069 0.50746185 65280
-0.25303614 -0.058759078 0.50672805 65280
-0.24759072 -0.059342429 0.50729883 65280
-0.24239758 -0.059430778 0.50750345 65280
-0.23730855 -0.059399858 0.50723678 65280
-0.23274155 -0.059734836 0.50711524 65280
-0.22936448 -0.059978753 0.50721204 65280
-0.13689153 -0.059978753 0.50721204 65280
-0.13192655 -0.059978753 0.50721204 65280
-0.12696156 -0.059978753 0.50721204 65280
-0.12199656 -0.059978753 0.50721204 65280
-0.06094148 -0.086617455 0.50210863 65280
-0.057155155 -0.086617455 0.50210863 65280
-0.040116679 -0.086617455 0.50210863 65280
-0.036330353 -0.086617455 0.50210863 65280
-0.032544028 -0.08661747 0.50210863 65280
-0.021816099 -0.086617455 0.50210863 65280
-0.018029772 -0.086617455 0.50210863 65280
-0.012981336 -0.086617455 0.50210863 65280
-0.0079328995 -0.086617455 0.50210863 65280
-0.0028844629 -0.086617455 0.50210863 65280
0.012681548 -0.086988911 0.50191104 65280
0.017309282 -0.087174624 0.50181234 65280
0.022357717 -0.086617455 0.50210863 65280
0.027406154 -0.086617455 0.50210863 65280
0.032454591 -0.086617455 0.50210863 65280
0.037503026 -0.086617455 0.50210863 65280
0.042551462 -0.086617455 0.50210863 65280
0.047599901 -0.086617455 0.50210863 65280
0.052648336 -0.086617455 0.50210863 65280
0.058075406 -0.086840346 0.50199008 65280
0.062745206 -0.087174624 0.50181234 65280
0.067793645 -0.087174624 0.50181234 65280
0.072842084 -0.086617455 0.50210863 65280
0.077890515 -0.086617455 0.50210863 65280
0.099977426 -0.086617455 0.50210863 65280
0.10281718 -0.086896062 0.50196046 65280
0.10691902 -0.086617455 0.50210863 65280
0.11196746 -0.086617455 0.50210863 65280
0.11890906 -0.086617455 0.50210863 65280
0.13405436 -0.086617455 0.50210863 65280
0.13746205 -0.087508962 0.5016346 65280
0.14242102 -0.087492913 0.50086814 65280
0.14725839 -0.087202594 0.50093138 65280
0.15243308 -0.087041542 0.5010336 65280
0.15758784 -0.087355837 0.50089806 65280
0.16216835 -0.087943643 0.50097883 65280
0.16728991 -0.087360367 0.50171357 65280
0.17288618 -0.086829513 0.50157112 65280
0.17760623 -0.086748064 0.50109535 65280
0.18229674 -0.086824879 0.50039935 65280
0.18737707 -0.086884663 0.50012606 65280
0.19238393 -0.086873338 0.50006127 65280
0.19754288 -0.08692944 0.50038546 65280
0.20235014 -0.087024242 0.50023121 65280
0.20743147 -0.086985245 0.50070971 65280
0.21257897 -0.087030247 0.50096893 65280
0.21759006 -0.087019026 0.50090408 65280
0.22244665 -0.086885154 0.50083369 65280
-0.20166664 -0.082159966 0.50447875 65280
-0.19682854 -0.082531393 0.50428116 65280
-0.1936733 -0.082531422 0.50428122 65280
-0.17642446 -0.082159966 0.50447875 65280
-0.17200708 -0.082159951 0.50447869 65280
-0.16737933 -0.082531393 0.50428116 65280
-0.16254126 -0.082159966 0.50447875 65280
-0.12783326 -0.082159951 0.50447869 65280
-0.1120569 -0.082159966 0.50447875 65280
-0.10763951 -0.082159951 0.50447869 65280
-0.10259108 -0.082159951 0.50447869 65280
-0.096995242 -0.082375467 0.50393939 65280
-0.092150107 -0.082334116 0.50341523 65280
-0.087265588 -0.08254838 0.50313962 65280
-0.082194924 -0.082516283 0.50294429 65280
-0.077347003 -0.082176134 0.5034247 65280
-0.072151087 -0.081991717 0.50343555 65280
-0.067211322 -0.082625493 0.50287211 65280
-0.062330604 -0.083019286 0.50193542 65280
-0.057390451 -0.082890958 0.50154161 65280
-0.052210066 -0.082836822 0.50221395 65280
-0.047170386 -0.083290368 0.50274497 65280
-0.042514876 -0.083033368 0.50240493 65280
-0.037729528 -0.082938462 0.50221682 65280
-0.032695863 -0.083108574 0.50251818 65280
-0.027855022 -0.082909897 0.50288439 65280
-0.023019191 -0.083061919 0.50258338 65280
-0.017968372 -0.082993433 0.50216681 65280
-0.012935869 -0.082984596 0.50211489 65280
-0.0079066753 -0.083001345 0.5022192 65280
-0.0028745646 -0.082993403 0.50216675 65280
0.0021559254 -0.08296831 0.50201035 65280
0.0071870768 -0.082985267 0.50211447 65280
0.012211121 -0.082941696 0.50185454 65280
0.017243316 -0.082958177 0.50195897 65280
0.022277076 -0.082975715 0.50206286 65280
0.027315557 -0.083002299 0.50221878 65280
0.032354265 -0.083019033 0.50232315 65280
0.037390742 -0.083027348 0.50237525 65280
0.042428382 -0.083035767 0.50242746 65280
0.047447659 -0.083010852 0.50227076 65280
0.052490152 -0.08302781 0.50237501 65280
0.057487696 -0.082976192 0.50206262 65280
0.062485933 -0.082932025 0.50180298 65280
0.06753432 -0.082957178 0.50195956 65280
0.07254108 -0.082932025 0.50180298 65280
0.077633038 -0.083002284 0.50221872 65280
0.082742482 -0.083079323 0.50268739 65280
0.087794483 -0.082537308 0.50307465 65280
0.092921048 -0.082681805 0.50286871 65280
0.097779892 -0.083019599 0.50232273 65280
0.10267418 -0.082870618 0.50219333 65280
0.10764951 -0.083061546 0.50258362 65280
0.11261433 -0.083010614 0.50227088 65280
0.11763458 -0.083002269 0.50221872 65280
0.1226131 -0.082983643 0.50249094 65280
0.1276048 -0.083105013 0.50284368 65280
0.13250497 -0.083019614 0.50232291 65280
0.13752258 -0.082993641 0.50182414 65280
0.14247963 -0.082389429 0.5010922 65280
0.14759026 -0.082174316 0.50086093 65280
0.15270489 -0.082227081 0.50118685 65280
0.15784594 -0.082291007 0.5015775 65280
0.16292468 -0.082628295 0.50158697 65280
0.16767325 -0.082864374 0.50138593 65280
0.17249542 -0.083233371 0.50104314 65280
0.1776579 -0.082716122 0.50050211 65280
0.18238983 -0.083051071 0.50010377 65280
0.18704168 -0.08335194 0.49950337 65280
0.19277218 -0.082859457 0.49991626 65280
0.19761355 -0.082120135 0.50053585 65280
0.20266072 -0.082687229 0.50032872 65280
0.20767874 -0.082812563 0.5004251 65280
0.21270451 -0.083247393 0.50007808 65280
0.21786633 -0.082876876 0.50002027 65280
0.22212416 -0.082148805 0.50070935 65280
-0.27613109 -0.07937403 0.50595999 65280
-0.27279237 -0.078235134 0.50523305 65280
-0.26796523 -0.07837218 0.50541973 65280
-0.26325756 -0.077925339 0.50673032 65280
-0.25972363 -0.077702463 0.50684881 65280
-0.25467521 -0.077702463 0.50684881 65280
-0.23637465 -0.077702463 0.50684881 65280
-0.23224975 -0.078157082 0.50644523 65280
-0.22729148 -0.078047514 0.50581592 65280
-0.22254527 -0.07805948 0.50524318 65280
-0.21753819 -0.078069717 0.50530863 65280
-0.21236411 -0.078019962 0.50498104 65280
-0.20738073 -0.078497797 0.50504166 65280
-0.20255588 -0.078326941 0.50437742 65280
-0.19767036 -0.078484967 0.50411099 65280
-0.19261169 -0.078741297 0.50470054 65280
-0.18761352 -0.078430727 0.50538868 65280
-0.18234922 -0.078423336 0.5055328 65280
-0.17740986 -0.078521803 0.50474405 65280
-0.17261249 -0.078521714 0.50433671 65280
-0.16768913 -0.078454107 0.50390083 65280
-0.16255371 -0.078585625 0.50400627 65280
-0.15751573 -0.078264922 0.50422788 65280
-0.15255378 -0.078552186 0.50452828 65280
-0.14749977 -0.078292921 0.50458425 65280
-0.14260849 -0.078059956 0.505243 65280
-0.1377164 -0.078140363 0.50576651 65280
-0.1324221 -0.078382105 0.50516605 65280
-0.12738425 -0.078543097 0.50447649 65280
-0.12244163 -0.078600183 0.50484252 65280
-0.11749313 -0.078656748 0.50520891 65280
-0.11237435 -0.078600153 0.50484246 65280
-0.10723959 -0.078527138 0.50437164 65280
-0.10212474 -0.078460872 0.50395387 65280
-0.097293288 -0.078447953 0.50387263 65280
-0.092367634 -0.077802286 0.50332242 65280
-0.087439254 -0.077694818 0.5028888 65280
-0.082144924 -0.078083768 0.50272554 65280
-0.077937581 -0.077786937 0.50283986 65280
-0.073055945 -0.078274772 0.50276923 65280
-0.068254858 -0.078452528 0.50237274 65280
-0.063402988 -0.078957245 0.50202882 65280
-0.057308633 -0.079270616 0.50148469 65280
-0.052323453 -0.078198478 0.50228131 65280
-0.047970969 -0.077694818 0.50288886 65280
-0.04295947 -0.078247622 0.50259495 65280
-0.037947107 -0.078800574 0.50230086 65280
-0.032677986 -0.078452513 0.50237274 65280
-0.0277899 -0.078109026 0.50288647 65280
-0.023047876 -0.077842936 0.50307435 65280
-0.018146001 -0.078452513 0.50237274 65280
-0.012887463 -0.078800574 0.50230086 65280
-0.0078759678 -0.078247622 0.50259495 65280
-0.0030328659 -0.078295931 0.50220889 65280
0.002146089 -0.078718022 0.50177848 65280
0.0074050194 -0.078402966 0.50205928 65280
0.012167959 -0.078220487 0.50242054 65280
0.016930198 -0.078452528 0.50237274 65280
0.022178227 -0.078738645 0.50190914 65280
0.027207971 -0.078800574 0.50230086 65280
0.03234344 -0.077799797 0.50279528 65280
0.037260555 -0.077754766 0.50328165 65280
0.042254418 -0.07771489 0.50301975 65280
0.047263995 -0.078261182 0.50268209 65280
0.052267183 -0.078247592 0.50259495 65280
0.057455044 -0.07857053 0.50210869 65280
0.062269866 -0.078220487 0.50242054 65280
0.067312241 -0.077704847 0.5029543 65280
0.072079524 -0.078485087 0.50258195 65280
0.077327259 -0.078800574 0.50230086 65280
0.08253359 -0.078370377 0.50268412 65280
0.087351114 -0.077694803 0.5028888 65280
0.092378736 -0.078261182 0.50268209 65280
0.097374976 -0.078800604 0.50230092 65280
0.10258368 -0.078607246 0.50234085 65280
0.10747277 -0.07809633 0.50280607 65280
0.1122291 -0.078340754 0.50249386 65280
0.11742269 -0.078800589 0.50230092 65280
0.12243462 -0.078800589 0.50230092 65280
0.12744655 -0.078800589 0.50230092 65280
0.13245848 -0.078800589 0.50230092 65280
0.13743415 -0.078779936 0.50217032 65280
0.14170823 -0.078994319 0.50163162 65280
0.15261571 -0.078796968 0.50173652 65280
0.15716945 -0.078419492 0.50216377 65280
0.16236092 -0.079270616 0.50148469 65280
0.16549012 -0.079270616 0.50148469 65280
-0.27246457 -0.073669985 0.5051595 65280
-0.26718026 -0.073594734 0.50542277 65280
-0.26273644 -0.074129999 0.50664496 65280
-0.25775844 -0.074124366 0.50699574 65280
-0.25262174 -0.074094132 0.50678539 65280
-0.24748805 -0.074064076 0.50657481 65280
-0.2426441 -0.074158058 0.50722325 65280
-0.23751545 -0.074128345 0.50702059 65280
-0.23231682 -0.073931828 0.50611162 65280
-0.22737217 -0.073550865 0.5054158 65280
-0.22231844 -0.074182481 0.50469351 65280
-0.21712357 -0.074375302 0.50465381 65280
-0.21211162 -0.074375317 0.50465387 65280
-0.2072763 -0.074420854 0.50438696 65280
-0.20250332 -0.074849948 0.5038352 65280
-0.1971799 -0.074493691 0.50444937 65280
-0.1924807 -0.073822349 0.50494784 65280
-0.18784246 -0.073948398 0.50499415 65280
-0.1826659 -0.074375302 0.50465381 65280
-0.17801066 -0.074349359 0.50447893 65280
-0.17371471 -0.074849948 0.5038352 65280
-0.15681706 -0.074849948 0.5038352 65280
-0.15306203 -0.074849948 0.5038352 65280
-0.14805532 -0.074849948 0.5038352 65280
-0.14210013 -0.074513167 0.50458056 65280
-0.13739744 -0.07384795 0.50512302 65280
-0.13258488 -0.073843583 0.50509107 65280
-0.127468 -0.074336335 0.50439149 65280
-0.12252276 -0.074375317 0.50465387 65280
-0.11751083 -0.074375331 0.50465387 65280
-0.11249889 -0.074375331 0.50465387 65280
-0.10812678 -0.07440789 0.50407028 65280
-0.1029949 -0.074849948 0.5038352 65280
-0.097988188 -0.074849948 0.5038352 65280
-0.092981465 -0.074849948 0.5038352 65280
-0.089852273 -0.074849948 0.5038352 65280
-0.047921047 -0.074849948 0.5038352 65280
0.03375097 -0.074021071 0.50427592 65280
0.036742426 -0.074198186 0.50446486 65280
0.040739506 -0.074481547 0.50403106 65280
-0.2615408 -0.070060909 0.50638157 65280
-0.25732681 -0.070208266 0.50630325 65280
-0.2531963 -0.070429295 0.50618571 65280
-0.24130535 -0.070429295 0.50618571 65280
-0.23692448 -0.070429295 0.50618571 65280
-0.23316945 -0.070429295 0.50618571 65280
-0.093449727 -0.097645268 0.50190789 65280
-0.038618386 -0.097645268 0.50190789 65280
0.0085620657 -0.097645268 0.50190789 65280
0.012770051 -0.097870439 0.50178814 65280
0.017488096 -0.098208219 0.50160861 65280
0.022588685 -0.098208219 0.50160861 65280
0.026732914 -0.097926736 0.50175822 65280
0.068175204 -0.097926736 0.50175822 65280
0.072319433 -0.098208219 0.50160861 65280
0.077593908 -0.098668814 0.50136364 65280
0.082247362 -0.098127797 0.50165135 65280
0.087621197 -0.097645268 0.50190789 65280
0.11737464 -0.098020568 0.50170839 65280
0.1222562 -0.098653778 0.50119734 65280
0.12725338 -0.098819017 0.50097483 65280
0.13204251 -0.098898083 0.50098032 65280
0.13713942 -0.098395869 0.50150883 65280
0.14256753 -0.098329291 0.50116664 65280
0.14744046 -0.098133326 0.50122368 65280
0.15265372 -0.098208219 0.50160861 65280
0.1577543 -0.097645268 0.50190789 65280
0.16285488 -0.097645268 0.50190789 65280
0.16838054 -0.098020568 0.50170839 65280
0.17263103 -0.098020583 0.50170833 65280
0.1775191 -0.097645253 0.50190783 65280
0.18225537 -0.098127797 0.50165135 65280
0.18708269 -0.097645268 0.50190789 65280
0.19090813 -0.097645268 0.50190789 65280
0.20238447 -0.097645268 0.50190789 65280
0.20765892 -0.098668799 0.50136364 65280
0.21258566 -0.098208219 0.50160861 65280
0.21730371 -0.097870424 0.50178814 65280
0.22278683 -0.097645268 0.50190789 65280
0.22661227 -0.097645268 0.50190789 65280
-0.19673666 -0.093141705 0.50430244 65280
-0.19333626 -0.09351702 0.50410295 65280
-0.1769719 -0.093704671 0.50400317 65280
-0.17378402 -0.093141705 0.50430244 65280
-0.15061884 -0.093516991 0.50410289 65280
-0.14662337 -0.093366891 0.5041827 65280
-0.14254291 -0.093704671 0.50400317 65280
-0.13807988 -0.093141705 0.50430244 65280
-0.13361686 -0.09314169 0.50430244 65280
-0.10598868 -0.093516991 0.50410289 65280
-0.102149 -0.094548434 0.50331175 65280
-0.097212918 -0.094770819 0.50308222 65280
-0.092127442 -0.094782889 0.50314659 65280
-0.087243356 -0.094575658 0.5034591 65280
-0.082246646 -0.093785077 0.50396037 65280
-0.077510379 -0.09314169 0.50430244 65280
-0.073047362 -0.093704671 0.50400317 65280
-0.067760617 -0.094147921 0.50366449 65280
-0.062619813 -0.093871132 0.50378871 65280
-0.057958111 -0.093892321 0.50390339 65280
-0.052645013 -0.093704671 0.50400317 65280
-0.047331896 -0.093892321 0.50390339 65280
-0.042236865 -0.094534829 0.50323802 65280
-0.037290987 -0.094698995 0.50269568 65280
-0.032197565 -0.09469898 0.50269568 65280
-0.027123557 -0.094204098 0.50335997 65280
-0.022018718 -0.09417218 0.50318825 65280
-0.017101459 -0.094300687 0.50327432 65280
-0.012722169 -0.094078809 0.50335115 65280
-0.0080066556 -0.093609408 0.50348747 65280
-0.0031241369 -0.093807653 0.50344497 65280
0.0023323284 -0.094396845 0.50337368 65280
0.0072798282 -0.094746903 0.50295341 65280
0.012445816 -0.094073892 0.50195897 65280
0.01741657 -0.093883887 0.50164276 65280
0.022506062 -0.093923122 0.50184834 65280
0.027514625 -0.094450995 0.50234044 65280
0.032608707 -0.094564945 0.50263959 65280
0.037966065 -0.094264284 0.5026601 65280
0.042925112 -0.094687089 0.50263125 65280
0.047734089 -0.094505742 0.50260633 65280
0.052297119 -0.094375685 0.50317436 65280
0.057306975 -0.094501436 0.50329626 65280
0.062038541 -0.094710886 0.50276017 65280
