# .PCD v0.7 - Point Cloud Data file format
VERSION 0.7
FIELDS x y z rgba
SIZE 4 4 4 4
TYPE F F F U
COUNT 1 1 1 1
WIDTH 1172
HEIGHT 1
VIEWPOINT 0 0 0 1 0 0 0
POINTS 1172
DATA ascii
-0.13232127 -0.22243693 0.31453484 65280
-0.1274845 -0.22238474 0.31399786 65280
-0.12262152 -0.22238234 0.31422266 65280
-0.11762924 -0.22254789 0.31486702 65280
-0.1125811 -0.22286651 0.3148329 65280
-0.10751086 -0.22262643 0.31400657 65280
-0.10248128 -0.22283673 0.31377825 65280
-0.097790524 -0.22236745 0.31405589 65280
-0.092543498 -0.22293331 0.3137207 65280
-0.087369449 -0.22311762 0.31326789 65280
-0.082380757 -0.22330266 0.31318259 65280
-0.077330723 -0.22287412 0.31351405 65280
-0.07245627 -0.22293936 0.3135623 65280
-0.06755536 -0.22331759 0.31306422 65280
-0.062505558 -0.22299924 0.31334803 65280
-0.057482544 -0.22313878 0.31296271 65280
-0.052573726 -0.22337767 0.31244427 65280
-0.047362078 -0.22245412 0.31215078 65280
-0.042444497 -0.22231758 0.3122133 65280
-0.037556369 -0.22226566 0.31223708 65280
-0.032738619 -0.22233957 0.31234112 65280
-0.027448921 -0.22216682 0.31209871 65280
-0.022451596 -0.22245386 0.31166875 65280
-0.017895482 -0.22258873 0.31160867 65280
-0.012628889 -0.22234264 0.31142145 65280
-0.0072588627 -0.22256687 0.31118098 65280
-0.0022369733 -0.22258846 0.31172174 65280
0.002387237 -0.22223946 0.31199858 65280
0.0072870348 -0.22253969 0.31121013 65280
0.010714287 -0.22286583 0.3108604 65280
0.023865372 -0.22286583 0.3108604 65280
0.0278107 -0.22286583 0.3108604 65280
0.032632764 -0.22266653 0.31107411 65280
0.037028212 -0.22279063 0.31112429 65280
0.042715263 -0.22286583 0.3108604 65280
0.047537327 -0.22286583 0.3108604 65280
0.05455124 -0.22286583 0.3108604 65280
0.057619825 -0.22286583 0.3108604 65280
0.062003523 -0.22286583 0.3108604 65280
-0.21127602 -0.21903905 0.31496412 65280
-0.20726494 -0.219054 0.31494808 65280
-0.20238155 -0.21934675 0.31536722 65280
-0.19768928 -0.21952607 0.31584436 65280
-0.19232327 -0.21946473 0.31597394 65280
-0.18750224 -0.21968924 0.31608215 65280
-0.18243372 -0.21956441 0.31586701 65280
-0.17742199 -0.21961764 0.31594315 65280
-0.17246073 -0.21945828 0.31571427 65280
-0.16755208 -0.21962148 0.31609893 65280
-0.16261482 -0.21951085 0.31585771 65280
-0.15770438 -0.21909618 0.31519604 65280
-0.15283178 -0.219028 0.31509817 65280
-0.14733176 -0.21951014 0.3153387 65280
-0.14250414 -0.21979429 0.31553417 65280
-0.13823466 -0.21975756 0.31539333 65280
-0.13438603 -0.21927823 0.31470764 65280
-0.12123494 -0.21927823 0.31470764 65280
-0.11758495 -0.21911277 0.31515166 65280
-0.11290927 -0.21921444 0.31521583 65280
-0.1089606 -0.21927823 0.31470764 65280
0.15910526 -0.28821853 0.25397468 65280
0.1609008 -0.28821853 0.25397468 65280
0.153943 -0.28653476 0.25578031 65280
0.15757374 -0.28674182 0.25555822 65280
0.16242702 -0.28623876 0.25609761 65280
0.16568898 -0.28546324 0.2569294 65280
0.15461634 -0.28087112 0.26185381 65280
0.15729171 -0.28068402 0.26112148 65280
0.16249612 -0.28123432 0.26007944 65280
0.16538972 -0.28311613 0.25944629 65280
0.14889488 -0.27636278 0.26375592 65280
0.15275238 -0.27856353 0.26259553 65280
0.15690872 -0.27808484 0.26062626 65280
0.16011319 -0.27733949 0.25977594 65280
0.1475562 -0.27575371 0.2644091 65280
0.11290669 -0.27130637 0.27005798 65280
0.086606026 -0.26731518 0.27492452 65280
-0.011024199 -0.26066571 0.28352147 65280
-0.0069782408 -0.26056424 0.28308046 65280
-0.0024887042 -0.26008907 0.28223369 65280
0.0024311608 -0.26018354 0.28167617 65280
0.0073348368 -0.25976259 0.28103378 65280
0.011900461 -0.26083168 0.28094414 65280
0.017837768 -0.26157567 0.28107944 65280
0.022205733 -0.26029891 0.28049347 65280
0.027453415 -0.26100266 0.2805942 65280
0.032366905 -0.26096851 0.28055751 65280
0.035474673 -0.26052627 0.28073847 65280
-0.026286472 -0.25699201 0.28746104 65280
-0.022098681 -0.2572777 0.28663102 65280
-0.017428383 -0.25728643 0.28494596 65280
-0.012734676 -0.25733638 0.28335944 65280
-0.0075998562 -0.25753355 0.28257316 65280
-0.002852903 -0.25736493 0.28161499 65280
0.00019599769 -0.25734454 0.28121787 65280
-0.041258473 -0.25392079 0.2904613 65280
-0.037290443 -0.25388461 0.28943172 65280
-0.032129545 -0.2533114 0.28890312 65280
-0.027498137 -0.25378731 0.28814104 65280
-0.022695186 -0.25370103 0.2869246 65280
-0.018695846 -0.25372452 0.28546643 65280
-0.0621977 -0.25025687 0.29468358 65280
-0.057444558 -0.25023252 0.29380742 65280
-0.052335098 -0.25042081 0.29304147 65280
-0.047442388 -0.25042042 0.29178509 65280
-0.042764172 -0.25077006 0.29080084 65280
-0.037902571 -0.25067833 0.28944188 65280
-0.034216251 -0.2509174 0.28908771 65280
-0.071025878 -0.24739951 0.2977477 65280
-0.067197956 -0.24725923 0.29631454 65280
-0.062672146 -0.24660674 0.2949574 65280
-0.057686634 -0.24691449 0.29370612 65280
-0.052860186 -0.24699154 0.29280892 65280
-0.049556017 -0.24704413 0.29226372 65280
-0.075566471 -0.24320465 0.30151302 65280
-0.072120555 -0.24399427 0.29913884 65280
-0.068270132 -0.24308963 0.29742089 65280
-0.064659312 -0.24340869 0.29616225 65280
0.12319402 -0.24352174 0.30190614 65280
-0.075549237 -0.24161062 0.3034668 65280
-0.072574832 -0.23964834 0.30195427 65280
0.10828298 -0.23766193 0.30305806 65280
0.11268243 -0.23898335 0.30212975 65280
0.11749484 -0.24099304 0.30241847 65280
0.12115614 -0.24204852 0.3031927 65280
-0.075215518 -0.23984802 0.30584571 65280
-0.07204359 -0.23761946 0.30667758 65280
-0.068806835 -0.23533592 0.3056339 65280
0.093500122 -0.23520015 0.30606461 65280
0.097702347 -0.23554367 0.3060627 65280
0.10257704 -0.23515306 0.30594844 65280
0.1072077 -0.23629802 0.3060433 65280
0.11191301 -0.23756967 0.30745095 65280
0.11730694 -0.23699 0.30866623 65280
0.12263857 -0.23719332 0.3082037 65280
0.12754977 -0.23715204 0.30815011 65280
0.13233949 -0.23619425 0.3076255 65280
0.13757995 -0.2368544 0.30784827 65280
0.14276174 -0.23678254 0.30782968 65280
0.14750369 -0.23647621 0.30784857 65280
0.15223755 -0.2370466 0.30811673 65280
0.15764049 -0.23683117 0.30829123 65280
0.16272514 -0.23657666 0.30739868 65280
0.16771413 -0.23625375 0.30697685 65280
0.17251371 -0.23626004 0.30692992 65280
0.1774596 -0.23681715 0.3070074 65280
0.18250081 -0.23651767 0.30721775 65280
0.18642059 -0.23710583 0.30723375 65280
-0.075664409 -0.23311289 0.31306824 65280
-0.071831584 -0.23396067 0.31215912 65280
-0.067885406 -0.23361321 0.31046802 65280
-0.063906074 -0.23177697 0.30980873 65280
0.044617441 -0.23068465 0.30980712 65280
0.04550587 -0.23068465 0.30980712 65280
0.063096762 -0.23153292 0.30889747 65280
0.093196459 -0.23255062 0.30814457 65280
0.097569019 -0.23260328 0.3085708 65280
0.10254008 -0.23259728 0.30870917 65280
0.10748946 -0.2327767 0.30854124 65280
0.11258632 -0.23343393 0.30908543 65280
0.11752927 -0.23310022 0.30930504 65280
0.12250379 -0.23309794 0.30891445 65280
0.12731591 -0.23337524 0.30817863 65280
0.13245603 -0.23305593 0.30779746 65280
0.13751194 -0.23345205 0.30806136 65280
0.1422731 -0.23372267 0.3080155 65280
0.14750375 -0.23325296 0.30795527 65280
0.15261585 -0.23362167 0.3081238 65280
0.15750974 -0.23355854 0.30852479 65280
0.16162625 -0.23311195 0.3078326 65280
0.1663322 -0.23310828 0.30720812 65280
0.17299542 -0.23310828 0.30720812 65280
0.17743754 -0.23310828 0.30720812 65280
0.18321235 -0.23290631 0.30742472 65280
0.18587764 -0.23280531 0.307533 65280
-0.21539873 -0.23067369 0.3144621 65280
-0.21249521 -0.22951274 0.3147614 65280
-0.20756692 -0.22937164 0.3149856 65280
-0.20246585 -0.22952452 0.3155362 65280
-0.19729684 -0.22967806 0.31536245 65280
-0.19238913 -0.2296152 0.31509775 65280
-0.18778889 -0.23002793 0.31545031 65280
-0.18253154 -0.23016761 0.31569353 65280
-0.17787127 -0.23011665 0.31584144 65280
-0.17222102 -0.23035896 0.31587493 65280
-0.16738212 -0.2298623 0.31490445 65280
-0.16248414 -0.22994156 0.31464884 65280
-0.15742826 -0.22988772 0.31457162 65280
-0.15247175 -0.22985736 0.31468868 65280
-0.14784098 -0.2304751 0.31523037 65280
-0.14232367 -0.22977285 0.31525341 65280
-0.13739139 -0.22970562 0.31498912 65280
-0.13238585 -0.22964454 0.31474748 65280
-0.12768467 -0.22981964 0.31469899 65280
-0.12242685 -0.22943355 0.31478259 65280
-0.11750813 -0.22975104 0.31473786 65280
-0.1125406 -0.22988763 0.3146261 65280
-0.10759857 -0.22968762 0.31429747 65280
-0.10273548 -0.22955434 0.31462851 65280
-0.097613446 -0.22962208 0.31514543 65280
-0.092398494 -0.22984615 0.3149291 65280
-0.087342113 -0.23005374 0.31403822 65280
-0.082523994 -0.22980919 0.31402054 65280
-0.077484235 -0.22971758 0.31364727 65280
-0.072530821 -0.22958183 0.31346405 65280
-0.067806385 -0.22947018 0.31299475 65280
-0.0624744 -0.22896904 0.31252661 65280
-0.057788793 -0.22838223 0.31227627 65280
-0.05444238 -0.22856396 0.31208128 65280
0.043729011 -0.23007874 0.31045687 65280
0.045950085 -0.23007874 0.31045687 65280
-0.2121385 -0.22614034 0.31468034 65280
-0.2073061 -0.22626054 0.3146981 65280
-0.20228219 -0.22615656 0.3152495 65280
-0.19778135 -0.22620642 0.31517342 65280
-0.19247572 -0.2263878 0.31514812 65280
-0.1873427 -0.22654483 0.31557959 65280
-0.18242417 -0.22698024 0.31591231 65280
-0.17752086 -0.22708969 0.31592828 65280
-0.17269267 -0.22658148 0.31614473 65280
-0.16752519 -0.22588943 0.31571752 65280
-0.16249011 -0.22633813 0.31507915 65280
-0.15741156 -0.22627532 0.31493548 65280
-0.15237629 -0.22628851 0.31501025 65280
-0.14748603 -0.22652991 0.31584617 65280
-0.14262559 -0.22598156 0.31588918 65280
-0.13764425 -0.22623578 0.31535998 65280
-0.13269415 -0.22625956 0.31484577 65280
-0.12729354 -0.22644331 0.31435543 65280
-0.12192072 -0.22643995 0.3148478 65280
-0.11740357 -0.22627532 0.31493548 65280
-0.11301523 -0.22627018 0.3145411 65280
-0.10841443 -0.22644329 0.31435543 65280
-0.10197333 -0.22644329 0.31435543 65280
-0.097188219 -0.22643933 0.31494626 65280
-0.092974521 -0.22661068 0.31501377 65280
-0.08820267 -0.22644329 0.31435543 65280
-0.073543601 -0.22644329 0.31435543 65280
0.14856336 -0.29514125 0.25329587 65280
0.15254469 -0.29513341 0.25257114 65280
0.15725239 -0.29397267 0.25209025 65280
0.16083638 -0.29279703 0.25199738 65280
0.12449496 -0.29155788 0.25772509 65280
0.12783508 -0.29179311 0.25693262 65280
0.13254865 -0.29192868 0.2565276 65280
0.13743766 -0.29207629 0.25631383 65280
0.14273502 -0.29230243 0.25563639 65280
0.14738856 -0.29177234 0.25456259 65280
0.15232797 -0.2910777 0.25408557 65280
0.15737407 -0.29057813 0.25356799 65280
0.16127589 -0.2903215 0.25331914 65280
0.11388447 -0.28855997 0.26093996 65280
0.11763604 -0.28894761 0.26052421 65280
0.12260284 -0.28944755 0.25998807 65280
0.12772782 -0.28891972 0.25943017 65280
0.13264149 -0.28874624 0.25927407 65280
0.13766466 -0.28869867 0.25900427 65280
0.14246774 -0.2878347 0.25784829 65280
0.1475102 -0.28726834 0.25725579 65280
0.15214582 -0.28677207 0.25704283 65280
0.15681924 -0.28608033 0.25773403 65280
0.16113982 -0.28553137 0.2583226 65280
0.11297499 -0.28641203 0.26324329 65280
0.11752236 -0.28607893 0.2636005 65280
0.12225787 -0.28638905 0.26326793 65280
0.12774922 -0.28657264 0.26300728 65280
0.1323746 -0.28704509 0.2624597 65280
0.13800734 -0.28707737 0.26219144 65280
0.14271149 -0.28488716 0.26242158 65280
0.14747754 -0.28421462 0.26188505 65280
0.15212975 -0.28362677 0.26134253 65280
0.1571793 -0.28368983 0.26029757 65280
0.16193865 -0.28386629 0.26010829 65280
0.11396024 -0.28246075 0.26748052 65280
0.11706763 -0.28290871 0.26700014 65280
0.12116023 -0.28390804 0.26592854 65280
0.14357381 -0.2825627 0.26693997 65280
0.14742181 -0.28155047 0.26615962 65280
0.15150653 -0.28146949 0.26454458 65280
0.10478977 -0.27863586 0.27158228 65280
0.10786779 -0.27863112 0.27151391 65280
0.11259344 -0.27894908 0.27071327 65280
0.11699602 -0.27895641 0.27098343 65280
0.14480647 -0.28080675 0.26925427 65280
0.14608036 -0.2789512 0.26772505 65280
0.10996317 -0.27637291 0.27254272 65280
0.11261209 -0.27478364 0.27160764 65280
0.11735676 -0.27594003 0.27268109 65280
0.084781408 -0.27150288 0.27923143 65280
0.087057471 -0.2715537 0.27819946 65280
0.062044643 -0.27026239 0.28056172 65280
-0.030721361 -0.26405981 0.28721318 65280
-0.027538216 -0.26405981 0.28721318 65280
-0.022525474 -0.26392403 0.28706551 65280
-0.017272733 -0.26359028 0.28585052 65280
-0.01246627 -0.26356816 0.28480777 65280
-0.0077219252 -0.2641429 0.28446642 65280
-0.0022691952 -0.26462331 0.28394294 65280
0.0026368315 -0.2651448 0.28356823 65280
0.0074359048 -0.26512662 0.28303894 65280
0.012238319 -0.26535609 0.28277779 65280
0.017410085 -0.26575416 0.28305012 65280
0.021913903 -0.26510292 0.28316194 65280
0.027961828 -0.26552927 0.28303063 65280
0.03214673 -0.26648825 0.28343597 65280
0.036751438 -0.26480117 0.28348562 65280
-0.041407637 -0.26111358 0.29037261 65280
-0.037212659 -0.26105201 0.28955886 65280
-0.032317221 -0.26124343 0.28838456 65280
-0.027367007 -0.26056108 0.2873973 65280
-0.022645343 -0.26081145 0.28672907 65280
-0.018217657 -0.26094225 0.28552908 65280
-0.056792855 -0.25734034 0.2944189 65280
-0.052109398 -0.25728998 0.29321611 65280
-0.047253069 -0.25752255 0.29186693 65280
-0.042636365 -0.25748339 0.29100704 65280
-0.037829544 -0.25772259 0.28979349 65280
-0.032934383 -0.25754201 0.28925398 65280
-0.028830253 -0.25750777 0.28837425 65280
-0.071738116 -0.2541247 0.29737857 65280
-0.06739527 -0.25386167 0.29631644 65280
-0.062573083 -0.25396538 0.29536065 65280
-0.05777147 -0.2542842 0.29445502 65280
-0.052857291 -0.25410211 0.29339498 65280
-0.048407834 -0.25397798 0.2921595 65280
-0.080742247 -0.25041413 0.30184636 65280
-0.077146739 -0.25095162 0.30045533 65280
-0.072525479 -0.2506038 0.29822168 65280
-0.068208367 -0.25093204 0.29634228 65280
-0.081447758 -0.24821424 0.30375427 65280
-0.07798107 -0.24724168 0.30202264 65280
-0.074275747 -0.24723472 0.29987946 65280
0.12441497 -0.2441559 0.30269238 65280
0.13207388 -0.24731284 0.30517209 65280
-0.081849702 -0.24485356 0.30687624 65280
-0.078277335 -0.24311569 0.30535567 65280
0.11841736 -0.24170741 0.30615589 65280
0.1230507 -0.24228919 0.30538881 65280
0.12759237 -0.2432211 0.30580625 65280
0.13255061 -0.24432367 0.30696771 65280
0.13733827 -0.24371575 0.30764037 65280
0.14250079 -0.24374337 0.30826667 65280
0.14775546 -0.24369548 0.30784369 65280
0.15268718 -0.24400923 0.30758169 65280
0.15775311 -0.24393101 0.30721503 65280
0.16246031 -0.24397913 0.3066524 65280
0.16728859 -0.2439695 0.30686343 65280
0.17236204 -0.24378143 0.30764714 65280
0.17768721 -0.24390611 0.30718315 65280
0.18236372 -0.24392967 0.30692327 65280
0.18754487 -0.24385343 0.30677041 65280
0.19027999 -0.24638246 0.30616981 65280
-0.085744336 -0.24049002 0.31248868 65280
-0.081970803 -0.24145456 0.31120989 65280
-0.07766521 -0.24035774 0.3095147 65280
-0.074045181 -0.23840275 0.30959499 65280
0.1140636 -0.23924486 0.30795881 65280
0.1178956 -0.23970205 0.30824035 65280
0.1224644 -0.24022532 0.30768377 65280
0.12742898 -0.24009347 0.30769032 65280
0.13244048 -0.2403352 0.30782458 65280
0.13745275 -0.24028835 0.30793953 65280
0.14260563 -0.24037977 0.30808589 65280
0.14744446 -0.24040546 0.3080889 65280
0.15253532 -0.24048331 0.3081786 65280
0.15743721 -0.23999852 0.3081069 65280
0.16256119 -0.24019097 0.30716985 65280
0.16779529 -0.24041551 0.30728993 65280
0.17256995 -0.24042167 0.3073633 65280
0.17753041 -0.24092029 0.30741891 65280
0.18252014 -0.24028952 0.30698517 65280
0.18675353 -0.24037209 0.30699435 65280
-0.21687821 -0.23699947 0.31497496 65280
-0.21253216 -0.2368817 0.31505471 65280
-0.20800817 -0.23690759 0.31616741 65280
-0.20222215 -0.23677041 0.3162331 65280
-0.19724749 -0.23710522 0.31533635 65280
-0.19257489 -0.2372199 0.31487828 65280
-0.18768786 -0.23719892 0.31501821 65280
-0.1827466 -0.23682596 0.31568474 65280
-0.17746998 -0.23708346 0.31551334 65280
-0.17256011 -0.23721027 0.31497934 65280
-0.16757531 -0.23720899 0.31479588 65280
-0.16262116 -0.23721988 0.31487826 65280
-0.15754873 -0.23695065 0.31448466 65280
-0.15245429 -0.23702526 0.31422782 65280
-0.14762303 -0.23715901 0.31407076 65280
-0.14246753 -0.23714571 0.31410313 65280
-0.1374035 -0.23708987 0.31453532 65280
-0.13247345 -0.23700514 0.31469283 65280
-0.12754752 -0.23731206 0.31483021 65280
-0.12244796 -0.23715585 0.31472537 65280
-0.11745673 -0.23750903 0.31432384 65280
-0.11249121 -0.23694974 0.31461897 65280
-0.10747761 -0.23731549 0.31487292 65280
-0.10248535 -0.23716144 0.31487113 65280
-0.097374618 -0.23742226 0.31454673 65280
-0.092397161 -0.23724656 0.31413394 65280
-0.087509848 -0.23770079 0.31379133 65280
-0.082480237 -0.23729044 0.31365374 65280
-0.077520154 -0.23680973 0.31281838 65280
-0.073330626 -0.23606707 0.31205666 65280
-0.21634631 -0.23383866 0.31463602 65280
-0.2124451 -0.23354454 0.31504923 65280
-0.20735426 -0.23370937 0.31589442 65280
-0.20254357 -0.23367901 0.31609201 65280
-0.19770408 -0.23356791 0.31551298 65280
-0.1924611 -0.23357019 0.31507924 65280
-0.18719131 -0.233529 0.31540808 65280
-0.18247275 -0.23365332 0.3159546 65280
-0.17745592 -0.23347795 0.31615928 65280
-0.17275657 -0.23331378 0.31563881 65280
-0.16781612 -0.23356293 0.31478503 65280
-0.16248359 -0.23371656 0.31462035 65280
-0.15729895 -0.23377201 0.31462747 65280
-0.15234634 -0.23366103 0.31461319 65280
-0.14719872 -0.2334978 0.31475019 65280
-0.14244637 -0.23324858 0.31482041 65280
-0.13745321 -0.23357019 0.31507924 65280
-0.13269307 -0.23348056 0.31481698 65280
-0.12729201 -0.23362817 0.3148199 65280
-0.12262458 -0.23352253 0.31519499 65280
-0.11731271 -0.23362812 0.31481987 65280
-0.11246213 -0.23371653 0.31462032 65280
-0.10750505 -0.23371653 0.31462032 65280
-0.10230874 -0.23363271 0.31505242 65280
-0.097510487 -0.23349796 0.3151567 65280
-0.092851296 -0.23352718 0.31487986 65280
-0.087563001 -0.23371994 0.31388354 65280
-0.082544737 -0.23371798 0.31430456 65280
-0.078561813 -0.23371994 0.31388357 65280
0.1240993 -0.29886541 0.25722015 65280
0.12785089 -0.29864317 0.25672528 65280
0.13275072 -0.29837957 0.2558167 65280
0.13762076 -0.29863685 0.25526583 65280
0.14255551 -0.29872674 0.25546265 65280
0.14679809 -0.2983261 0.25406611 65280
0.10320473 -0.29496175 0.26047319 65280
0.1076756 -0.29512668 0.25960886 65280
0.11257872 -0.29505786 0.25910383 65280
0.11761431 -0.2951839 0.25836107 65280
0.1224633 -0.29486579 0.25781983 65280
0.1271086 -0.29547736 0.25671324 65280
0.13234927 -0.29533958 0.25593576 65280
0.13737768 -0.2950021 0.25549793 65280
0.14244327 -0.29520935 0.25527564 65280
0.079423018 -0.29195487 0.26463076 65280
0.083036572 -0.29191726 0.26418233 65280
0.087759309 -0.29195035 0.26383588 65280
0.092478164 -0.29202253 0.26352322 65280
0.097649135 -0.29251871 0.2628653 65280
0.10233541 -0.29157519 0.26181206 65280
0.10746679 -0.29058278 0.26092124 65280
0.11228145 -0.29054001 0.26054946 65280
0.11716134 -0.29119563 0.2595799 65280
0.12055989 -0.29147825 0.25927675 65280
0.063993581 -0.28834254 0.2685045 65280
0.067670859 -0.28865704 0.26761743 65280
0.072563358 -0.28904757 0.26691762 65280
0.077597298 -0.28880334 0.26627755 65280
0.082415596 -0.28830558 0.26547825 65280
0.087440111 -0.28771535 0.26525247 65280
0.092388146 -0.2877208 0.26495561 65280
0.09752848 -0.28761083 0.26509967 65280
0.10248863 -0.2875762 0.26488006 65280
0.10742194 -0.28703833 0.26448604 65280
0.11144181 -0.28581253 0.26535258 65280
0.12347768 -0.28550848 0.26567855 65280
0.12703374 -0.28550851 0.26567858 65280
0.13285352 -0.28689975 0.26583612 65280
0.1376093 -0.2874957 0.26621345 65280
0.14058061 -0.28580132 0.26595098 65280
0.05785251 -0.28609139 0.27091858 65280
0.062376078 -0.28627664 0.2706711 65280
0.067276746 -0.28557411 0.27000698 65280
0.072304942 -0.28547731 0.26991522 65280
0.0775977 -0.28467801 0.26915959 65280
0.082474858 -0.28412077 0.26863286 65280
0.087423861 -0.28416374 0.2685867 65280
0.092489928 -0.28455564 0.26904646 65280
0.097240269 -0.28575787 0.2692925 65280
0.10267113 -0.28553572 0.26907071 65280
0.10758555 -0.28379497 0.26814452 65280
0.11184706 -0.28353232 0.26779765 65280
0.11899678 -0.28277236 0.26861274 65280
0.12252716 -0.28358409 0.26823092 65280
0.12653124 -0.28403419 0.26855323 65280
0.14149837 -0.28490695 0.26898122 65280
0.058696907 -0.28315964 0.27406248 65280
0.062370602 -0.28311157 0.27401629 65280
0.067351878 -0.2827563 0.27367395 65280
0.072341911 -0.2824885 0.27341369 65280
0.07766445 -0.28179398 0.27274114 65280
0.082710832 -0.28180766 0.27275577 65280
0.087304398 -0.28183612 0.27278385 65280
0.091856912 -0.28272203 0.27327508 65280
0.10414733 -0.2790412 0.27261385 65280
0.10790855 -0.28114 0.27036324 65280
0.11098589 -0.28152862 0.26994643 65280
0.11938756 -0.28055146 0.27099437 65280
0.12258088 -0.28082094 0.27194595 65280
0.12671112 -0.28240123 0.27157664 65280
0.020468749 -0.27813381 0.27945206 65280
0.058307186 -0.28021181 0.27722368 65280
0.062381562 -0.28010824 0.27733472 65280
0.067294411 -0.28043732 0.27698183 65280
0.072138563 -0.28039205 0.27624834 65280
0.077383786 -0.28024775 0.27571887 65280
0.082725115 -0.27992025 0.27674207 65280
0.087595038 -0.27932471 0.27739289 65280
0.090608537 -0.27992874 0.27752721 65280
0.12190417 -0.27861673 0.27424207 65280
0.013769399 -0.27556378 0.28220806 65280
0.017705264 -0.27624911 0.28147313 65280
0.021696961 -0.27624911 0.28147313 65280
0.026456291 -0.27609205 0.28164154 65280
0.062842131 -0.27499264 0.28282052 65280
0.084949978 -0.27499264 0.28282052 65280
0.087595038 -0.27641997 0.28050789 65280
0.09116587 -0.27589774 0.28038374 65280
-0.011311287 -0.27122328 0.28686267 65280
-0.0076217516 -0.27099383 0.28662002 65280
-0.0025537645 -0.27053487 0.2861346 65280
0.0028810005 -0.27084371 0.28568122 65280
0.0078346198 -0.27130002 0.28451425 65280
0.012580803 -0.27154732 0.2838676 65280
0.017638795 -0.27175841 0.28408945 65280
0.021906296 -0.27196795 0.2849167 65280
0.027482761 -0.27056426 0.28543669 65280
0.032084893 -0.27020168 0.28518859 65280
0.035623215 -0.27087909 0.28649864 65280
0.059541825 -0.2733888 0.28380728 65280
0.061659813 -0.27278715 0.28274184 65280
-0.040788423 -0.26808211 0.29023114 65280
-0.037161384 -0.26789224 0.28951833 65280
-0.032517273 -0.26778573 0.28847903 65280
-0.027267976 -0.26722538 0.28772858 65280
-0.022581313 -0.26773882 0.28773651 65280
-0.017547686 -0.26826966 0.28709754 65280
-0.012832479 -0.26853594 0.28647357 65280
-0.0075798123 -0.26856661 0.28604591 65280
-0.0029312833 -0.2682589 0.28543332 65280
0.0020254466 -0.26812255 0.28490913 65280
0.02299637 -0.26784787 0.28461725 65280
0.026187699 -0.26784787 0.28461725 65280
0.034393977 -0.26784787 0.28461725 65280
0.037593961 -0.26878524 0.28605583 65280
-0.055526987 -0.26431274 0.29427332 65280
-0.05185622 -0.26428699 0.29342115 65280
-0.047278043 -0.26423952 0.29190806 65280
-0.042712472 -0.2646178 0.29055846 65280
-0.037589256 -0.26462513 0.28962097 65280
-0.033398516 -0.26464447 0.28829685 65280
-0.066837981 -0.2611565 0.29702955 65280
-0.062201988 -0.26123816 0.29540595 65280
-0.05768441 -0.260939 0.29460675 65280
-0.05294323 -0.26105964 0.2935355 65280
-0.048696931 -0.26089257 0.29236907 65280
-0.077101216 -0.25750193 0.30011076 65280
-0.072432876 -0.25782853 0.298161 65280
-0.067515574 -0.25820106 0.29701507 65280
-0.063137434 -0.25799552 0.29591575 65280
-0.059978213 -0.25789824 0.29528689 65280
-0.086291067 -0.25441766 0.3036848 65280
-0.082214572 -0.25432789 0.3021093 65280
-0.077951454 -0.25397697 0.30034721 65280
0.14897063 -0.25457519 0.30471557 65280
0.15348431 -0.25476366 0.30451345 65280
-0.08735244 -0.2512458 0.3060866 65280
-0.083836533 -0.25005627 0.30433792 65280
0.13358572 -0.2485705 0.30528975 65280
0.13758938 -0.2495425 0.30614483 65280
0.14240266 -0.25041375 0.30683222 65280
0.14769453 -0.25108778 0.30662242 65280
0.1526904 -0.25116783 0.30643016 65280
0.15742123 -0.25101811 0.30659249 65280
0.16235489 -0.25085223 0.30675283 65280
0.16735785 -0.25087357 0.30685222 65280
0.17232934 -0.25089008 0.30669361 65280
0.1775551 -0.25069645 0.30678827 65280
0.18258528 -0.25081518 0.30665296 65280
0.1877819 -0.25077018 0.30644986 65280
0.19137472 -0.25134668 0.30603462 65280
-0.090596877 -0.24833776 0.31140441 65280
-0.08759106 -0.24770145 0.30972806 65280
-0.084445082 -0.24587578 0.30817944 65280
0.13423701 -0.24732676 0.30662343 65280
0.13750224 -0.24699557 0.30742973 65280
0.14238517 -0.2469085 0.30799791 65280
0.1470952 -0.24700688 0.30789247 65280
0.15228815 -0.24728113 0.30740553 65280
0.15728401 -0.24733172 0.30720466 65280
0.16250308 -0.24732676 0.30662343 65280
0.16784367 -0.24723795 0.30671874 65280
0.17294791 -0.24709311 0.30755067 65280
0.17713234 -0.24716055 0.30720162 65280
0.18308839 -0.24733028 0.30703858 65280
0.18722776 -0.24726042 0.30702046 65280
-0.22105499 -0.24421357 0.31509387 65280
-0.21760894 -0.24427034 0.31509972 65280
-0.21309225 -0.24428898 0.31556293 65280
-0.2073068 -0.24441972 0.31544307 65280
-0.2024224 -0.24415688 0.31508806 65280
-0.1973668 -0.24427034 0.31509972 65280
-0.19229998 -0.24431933 0.31473619 65280
-0.18744555 -0.24446706 0.31430894 65280
-0.1827137 -0.24471608 0.31448179 65280
-0.1775855 -0.24415688 0.31508806 65280
-0.17252417 -0.24427034 0.31509972 65280
-0.16746676 -0.24415685 0.31508806 65280
-0.16240309 -0.24427034 0.31509972 65280
-0.15708707 -0.24434862 0.3148444 65280
-0.15221441 -0.24383657 0.31435776 65280
-0.14742561 -0.24372163 0.31371528 65280
-0.14254557 -0.2437683 0.31387758 65280
-0.13783401 -0.24432695 0.31430289 65280
-0.1325902 -0.24447227 0.31477341 65280
-0.12710597 -0.24402019 0.31423491 65280
-0.12231392 -0.2441133 0.3137098 65280
-0.11755759 -0.24408044 0.31365213 65280
-0.11274499 -0.24438131 0.31401807 65280
-0.10753297 -0.24461588 0.31406265 65280
-0.10244859 -0.24414453 0.31402418 65280
-0.097570807 -0.24382733 0.31379735 65280
-0.092503794 -0.24383968 0.31343743 65280
-0.087695658 -0.24350922 0.31244528 65280
-0.084191792 -0.24311201 0.31114325 65280
-0.22038911 -0.24172385 0.31483123 65280
-0.21762824 -0.24082458 0.31491584 65280
-0.21230204 -0.24098612 0.31548652 65280
-0.20737401 -0.2406837 0.31623995 65280
-0.20271356 -0.24027279 0.31587157 65280
-0.19778858 -0.24076501 0.31499299 65280
-0.19253702 -0.24102661 0.31475413 65280
-0.18741313 -0.24090761 0.31489626 65280
-0.18254063 -0.24039048 0.31525654 65280
-0.17776567 -0.24067989 0.31508419 65280
-0.17269869 -0.24100071 0.31479207 65280
-0.16740908 -0.24106726 0.31480214 65280
-0.16244894 -0.24129695 0.31492245 65280
-0.15748787 -0.24110405 0.31476277 65280
-0.15312757 -0.24079482 0.31450787 65280
-0.14751182 -0.24048638 0.31395882 65280
-0.14217123 -0.24039759 0.31405413 65280
-0.13719544 -0.24092677 0.3147434 65280
-0.13249938 -0.24102661 0.31475413 65280
-0.12770398 -0.24081774 0.31473148 65280
-0.12262433 -0.24027854 0.31434464 65280
-0.11742215 -0.24048638 0.31395882 65280
-0.11234324 -0.24081486 0.31468183 65280
-0.107513 -0.2411816 0.31477118 65280
-0.10264459 -0.24062693 0.31471044 65280
-0.09775313 -0.24030875 0.31414938 65280
-0.09325923 -0.24048638 0.31395882 65280
0.073900975 -0.29884088 0.26457784 65280
0.077632383 -0.29884088 0.26457784 65280
0.082296625 -0.29884088 0.26457784 65280
0.087588891 -0.2989502 0.26367861 65280
0.092726596 -0.29894835 0.26286304 65280
0.097640663 -0.29884836 0.26186633 65280
0.10222048 -0.2993297 0.26087674 65280
0.1070439 -0.29924667 0.25974384 65280
0.11204073 -0.29903647 0.25899169 65280
0.11564104 -0.29899409 0.25854838 65280
0.058019593 -0.29598632 0.26741338 65280
0.062507637 -0.29630235 0.26689285 65280
0.067741044 -0.29577151 0.266473 65280
0.072585359 -0.29584292 0.26559335 65280
0.077434577 -0.29536834 0.26526052 65280
0.082362033 -0.29580888 0.26467681 65280
0.087217875 -0.29528233 0.26389727 65280
0.092207432 -0.29527378 0.26327103 65280
0.096016698 -0.29505771 0.26276967 65280
0.043863196 -0.2919699 0.27194607 65280
0.048053276 -0.29211292 0.27105957 65280
0.052768353 -0.29203343 0.2696296 65280
0.05753107 -0.29181457 0.26872197 65280
0.062224053 -0.29127595 0.26819023 65280
0.066977099 -0.29195765 0.26712903 65280
0.071928777 -0.29196107 0.26609039 65280
0.027724881 -0.28866166 0.27549374 65280
0.03305319 -0.28886399 0.27511376 65280
0.037709869 -0.28917995 0.27408904 65280
0.042463489 -0.28867641 0.27293628 65280
0.047454786 -0.28795823 0.27225959 65280
0.052419808 -0.28724563 0.27158701 65280
0.056963366 -0.28722122 0.27117324 65280
0.097953074 -0.28656527 0.27285418 65280
0.10140201 -0.28727391 0.27331614 65280
0.13821715 -0.28930253 0.27154803 65280
0.14070541 -0.28832167 0.2729257 65280
0.0084818564 -0.28578877 0.27839115 65280
0.012468789 -0.28589129 0.27756849 65280
0.017498024 -0.28596783 0.27686572 65280
0.022498606 -0.28554806 0.27636927 65280
0.027587567 -0.2853418 0.2761701 65280
0.032667436 -0.28511587 0.27595291 65280
0.037361804 -0.28468782 0.27563828 65280
0.042376243 -0.28441823 0.27519032 65280
0.047421914 -0.28459692 0.27545363 65280
0.052486468 -0.28445306 0.27531469 65280
0.056537144 -0.28387833 0.27475807 65280
0.093998566 -0.28311247 0.27594593 65280
0.097291097 -0.28543678 0.2764053 65280
0.10071646 -0.28737211 0.27658331 65280
0.14164317 -0.2873036 0.27548382 65280
-0.0014266905 -0.28182247 0.28282785 65280
0.0029578854 -0.2822288 0.28149968 65280
0.0076330872 -0.28200176 0.28004515 65280
0.012488608 -0.28097525 0.27920425 65280
0.017513903 -0.28075954 0.27863598 65280
0.022439038 -0.28056711 0.27851129 65280
0.027456753 -0.28051358 0.27857026 65280
0.032539897 -0.28053331 0.27858964 65280
0.037349738 -0.28073648 0.27863148 65280
0.042501878 -0.28127804 0.27948719 65280
0.047599617 -0.28248948 0.27988383 65280
0.052713856 -0.28171676 0.27957737 65280
0.056708392 -0.28006679 0.27893168 65280
0.062210057 -0.27892971 0.28006482 65280
0.079312868 -0.27968448 0.28035513 65280
0.08232116 -0.27956152 0.28005373 65280
0.08516559 -0.27883974 0.28016132 65280
0.093127497 -0.28050017 0.27869946 65280
0.096678942 -0.28191063 0.27945578 65280
-0.015652658 -0.27848241 0.28640962 65280
-0.012154469 -0.27903908 0.28581268 65280
-0.0072015761 -0.27912921 0.28517586 65280
-0.0025889894 -0.27927902 0.28455833 65280
0.0025245862 -0.27847004 0.28373474 65280
0.0076087499 -0.27759561 0.28284433 65280
0.012014794 -0.27734804 0.28176096 65280
0.023950839 -0.27695024 0.28218752 65280
0.027589019 -0.27697453 0.28216159 65280
0.032533143 -0.27700618 0.28224492 65280
0.037265718 -0.27784687 0.28310284 65280
0.04134858 -0.27942595 0.28429803 65280
0.054395862 -0.27948338 0.28403279 65280
0.057409152 -0.27763247 0.28303084 65280
0.062032729 -0.27739447 0.28241241 65280
0.082489841 -0.27834457 0.28346771 65280
0.08535029 -0.27732813 0.28178227 65280
0.093556739 -0.27812952 0.28141174 65280
0.09602832 -0.27891421 0.28154773 65280
-0.031511113 -0.2753014 0.28982085 65280
-0.027457938 -0.27529246 0.28958607 65280
-0.022085246 -0.27518669 0.28863201 65280
-0.017353555 -0.27510735 0.28782952 65280
-0.012619155 -0.275269 0.28734881 65280
-0.0074183051 -0.27478561 0.28673536 65280
-0.0025758059 -0.2747179 0.28651682 65280
0.0023248654 -0.27475569 0.28594601 65280
0.0067854789 -0.27475417 0.28472579 65280
0.023752946 -0.27411604 0.28522685 65280
0.027446941 -0.27411607 0.28522688 65280
0.032646835 -0.27430537 0.2855823 65280
0.037340507 -0.27484205 0.28694639 65280
0.040668182 -0.27665329 0.28837106 65280
0.05773703 -0.27557674 0.28512675 65280
0.061258625 -0.275525 0.28469342 65280
0.083599061 -0.27598923 0.28517312 65280
-0.055765219 -0.2714842 0.29391432 65280
-0.051991131 -0.27146941 0.29344133 65280
-0.047059558 -0.27105328 0.29217693 65280
-0.042496484 -0.27136287 0.29118511 65280
-0.037600838 -0.27220008 0.29028064 65280
-0.032430254 -0.27240261 0.28953862 65280
-0.027805917 -0.27227828 0.28911501 65280
-0.0228623 -0.27235919 0.28887036 65280
-0.019189732 -0.27128184 0.28826615 65280
0.039188091 -0.27328843 0.28904691 65280
0.04128724 -0.27343953 0.29010674 65280
-0.065560147 -0.26862127 0.2969844 65280
-0.062251892 -0.26851547 0.29571304 65280
-0.057466261 -0.26825613 0.29461253 65280
-0.052794237 -0.26803714 0.29365176 65280
-0.048386339 -0.26808432 0.29234675 65280
-0.076586172 -0.26438269 0.30024672 65280
-0.072322734 -0.2640222 0.29915619 65280
-0.067684785 -0.2650317 0.29790121 65280
-0.063232273 -0.26515511 0.29597676 65280
-0.058438417 -0.26498359 0.29502019 65280
-0.087051556 -0.26129788 0.30428782 65280
-0.082093917 -0.26139495 0.30242956 65280
-0.078003503 -0.26154006 0.30066794 65280
-0.074137889 -0.26120463 0.29907262 65280
0.16278008 -0.26092222 0.3037743 65280
0.16625315 -0.26194113 0.30414793 65280
-0.091354169 -0.25827071 0.30649558 65280
-0.088103466 -0.25763544 0.30453885 65280
-0.083735287 -0.25819087 0.30289102 65280
0.15442798 -0.25616604 0.30447584 65280
0.15801542 -0.25665498 0.30511233 65280
0.16258685 -0.25765681 0.30540529 65280
0.1674899 -0.25795811 0.30612206 65280
0.17248558 -0.25786501 0.3065452 65280
0.17747124 -0.25789899 0.30663607 65280
0.18266988 -0.25822619 0.30631003 65280
0.18744138 -0.25787833 0.3059032 65280
0.19220439 -0.25812805 0.30593991 65280
0.19553463 -0.25989944 0.30575094 65280
-0.095877782 -0.25462484 0.31199375 65280
-0.092513353 -0.25436822 0.30911919 65280
0.1584298 -0.25427657 0.30650207 65280
0.16273946 -0.25427657 0.30650207 65280
0.16781393 -0.25418857 0.30680588 65280
0.17181057 -0.25438622 0.30687332 65280
0.17709795 -0.25435272 0.30707207 65280
0.18259467 -0.25427657 0.30650207 65280
0.18767391 -0.25427657 0.30650207 65280
0.19136791 -0.25427657 0.30650207 65280
-0.222279 -0.25112572 0.3157461 65280
-0.21761477 -0.25112572 0.3157461 65280
-0.21232501 -0.25125495 0.31516752 65280
-0.20732865 -0.25118661 0.31501424 65280
-0.2025073 -0.2514917 0.31482998 65280
-0.19754218 -0.25107157 0.31500435 65280
-0.19213006 -0.25122806 0.31462121 65280
-0.18731837 -0.25128245 0.31376663 65280
-0.18292578 -0.25128284 0.31425101 65280
-0.17731635 -0.25128758 0.31496152 65280
-0.17250918 -0.25142539 0.31483829 65280
-0.16749711 -0.25112912 0.3150093 65280
-0.16260286 -0.25118664 0.31501424 65280
-0.15748444 -0.25107157 0.31500432 65280
-0.1525902 -0.25112909 0.31500927 65280
-0.14753501 -0.25130019 0.31448376 65280
-0.14273521 -0.25104812 0.31416762 65280
-0.13766667 -0.25103837 0.3138603 65280
-0.132458 -0.25128883 0.31465477 65280
-0.12745418 -0.25126728 0.31433743 65280
-0.12243204 -0.25067323 0.31352431 65280
-0.11755519 -0.25035742 0.31341171 65280
-0.11269055 -0.25040603 0.31330341 65280
-0.10782424 -0.25072166 0.31347245 65280
-0.10265723 -0.25125343 0.31400317 65280
-0.097339176 -0.25150812 0.31366971 65280
-0.092943765 -0.25025439 0.31202656 65280
-0.22185937 -0.24820945 0.31548253 65280
-0.21752055 -0.24800354 0.31546339 65280
-0.21252687 -0.24747063 0.31550142 65280
-0.20762135 -0.24754567 0.31511962 65280
-0.20250659 -0.24760351 0.31499103 65280
-0.19746131 -0.24766001 0.31506363 65280
-0.19258474 -0.24775359 0.31479087 65280
-0.18764986 -0.24786288 0.31404635 65280
-0.18243174 -0.24793449 0.31437832 65280
-0.17757356 -0.24768639 0.3150965 65280
-0.17235346 -0.24764507 0.31507969 65280
-0.1673608 -0.24783739 0.31525603 65280
-0.16242298 -0.24767654 0.31512311 65280
-0.1579002 -0.24790479 0.31496406 65280
-0.15255794 -0.24797578 0.31472504 65280
-0.14731769 -0.24803993 0.31406984 65280
-0.14243032 -0.24792013 0.31398496 65280
-0.13734019 -0.24781969 0.3141593 65280
-0.13263434 -0.24794085 0.31468105 65280
-0.12771268 -0.24797657 0.31435776 65280
-0.12426575 -0.24776773 0.31397074 65280
-0.11800405 -0.2473485 0.31393152 65280
-0.11246307 -0.2473485 0.31393152 65280
-0.1066764 -0.24782009 0.31397563 65280
-0.10243408 -0.2479773 0.31399035 65280
-0.09781076 -0.2479773 0.31399035 65280
-0.094916604 -0.2473485 0.31393152 65280
0.064347625 -0.29996431 0.26557246 65280
0.03949919 -0.29908559 0.27066925 65280
0.041855868 -0.29908559 0.27066925 65280
0.047641065 -0.29867962 0.27024934 65280
0.05291922 -0.29749802 0.26870599 65280
0.056340683 -0.29780075 0.26740384 65280
0.063986152 -0.29869691 0.26619843 65280
0.067139074 -0.29876983 0.26612031 65280
0.070345432 -0.29895204 0.26592487 65280
0.02948912 -0.29549983 0.27549207 65280
0.033155322 -0.29576692 0.2742891 65280
0.037570927 -0.29566753 0.27247128 65280
0.042318229 -0.29527456 0.27171507 65280
0.047210865 -0.29563051 0.27080649 65280
0.051439561 -0.2957885 0.26968399 65280
0.0049310774 -0.29227895 0.27894601 65280
0.0081390794 -0.29215193 0.27773815 65280
0.012443657 -0.29223081 0.27694482 65280
0.017594164 -0.29202521 0.27628556 65280
0.022659458 -0.2922225 0.27618673 65280
0.027396895 -0.29260284 0.27615491 65280
0.032279011 -0.29198837 0.27520791 65280
0.036849413 -0.29184532 0.27379027 65280
0.13895915 -0.29138735 0.27550331 65280
0.14118581 -0.29115251 0.27722141 65280
-0.0016807038 -0.28905806 0.28239998 65280
0.0030305244 -0.2891444 0.28050783 65280
0.0073179128 -0.2885206 0.27840504 65280
0.011966714 -0.28866819 0.27716243 65280
0.015169325 -0.28874728 0.2768681 65280
0.10210483 -0.28831482 0.27942663 65280
0.14248039 -0.2909129 0.27894464 65280
-0.016773732 -0.28548402 0.28549963 65280
-0.012256325 -0.28528768 0.28444907 65280
-0.007317503 -0.28526434 0.28394619 65280
-0.0027918709 -0.28541729 0.28297701 65280
0.0017907752 -0.28556728 0.28140613 65280
0.048836101 -0.28236932 0.28370765 65280
0.051174074 -0.28236932 0.28370765 65280
-0.03615642 -0.28197214 0.28999871 65280
-0.032181557 -0.28256246 0.28899899 65280
-0.027268995 -0.282518 0.28811631 65280
-0.022298753 -0.28220439 0.28738108 65280
-0.017757287 -0.28173023 0.28638288 65280
-0.012695463 -0.28147724 0.28508329 65280
-0.0074310577 -0.28162521 0.28450561 65280
0.043252572 -0.27951431 0.2871359 65280
0.048492461 -0.28262475 0.28685507 65280
0.051874265 -0.28162336 0.28718516 65280
-0.046666164 -0.27862868 0.29309541 65280
-0.041870188 -0.27880347 0.29213989 65280
-0.037337001 -0.27880463 0.29089054 65280
-0.032805081 -0.27873549 0.290337 65280
-0.027627619 -0.27843124 0.28953028 65280
-0.022624101 -0.27829915 0.28836569 65280
-0.018965047 -0.27854255 0.28781137 65280
0.042960331 -0.27748033 0.28931707 65280
0.045710832 -0.28018582 0.28995922 65280
0.052592903 -0.28050309 0.29010779 65280
-0.066381708 -0.2755304 0.29690665 65280
-0.062123701 -0.27509665 0.29590547 65280
-0.057553597 -0.2746515 0.29498991 65280
-0.052571733 -0.27542114 0.29416451 65280
-0.047769744 -0.27558145 0.29300284 65280
-0.042884998 -0.2755999 0.29194453 65280
-0.039071593 -0.27535355 0.29123113 65280
0.042757377 -0.27535355 0.29123113 65280
-0.071852118 -0.27180728 0.29992163 65280
-0.06759204 -0.2721023 0.29781938 65280
-0.063171118 -0.2722705 0.29600364 65280
-0.086835787 -0.26844043 0.30421644 65280
-0.08244276 -0.26817113 0.30299383 65280
-0.077672236 -0.26864681 0.30172235 65280
-0.072818846 -0.26862282 0.30025369 65280
-0.068997614 -0.26833779 0.29875463 65280
0.17357306 -0.26778001 0.30375165 65280
0.17919874 -0.26844448 0.30450535 65280
0.18187493 -0.26844448 0.30450535 65280
0.18533824 -0.26844448 0.30450535 65280
0.19431138 -0.26844448 0.30450535 65280
0.197145 -0.26844448 0.30450535 65280
-0.095190182 -0.26522359 0.30795932 65280
-0.09177123 -0.26520735 0.30612457 65280
-0.087568983 -0.26525381 0.30462775 65280
-0.08336331 -0.26500192 0.30306509 65280
0.16864593 -0.26350665 0.30430201 65280
0.1725689 -0.26452187 0.30512771 65280
0.17749435 -0.2646555 0.30549407 65280
0.182514 -0.26470584 0.30522645 65280
0.18741105 -0.26467836 0.30517164 65280
0.1924461 -0.2646825 0.30521882 65280
0.19645198 -0.26504958 0.30496895 65280
-0.097090036 -0.26192325 0.31020465 65280
-0.093697086 -0.26170754 0.30785468 65280
0.17228095 -0.26132202 0.30627811 65280
0.17742448 -0.26132202 0.30627811 65280
0.18116525 -0.26132202 0.30627811 65280
-0.226009 -0.25813767 0.31555805 65280
-0.2227031 -0.25813764 0.31555802 65280
-0.21750814 -0.25813767 0.31555805 65280
-0.21215571 -0.2583524 0.31532779 65280
-0.20756717 -0.25808197 0.31481802 65280
-0.20238189 -0.25814009 0.31488901 65280
-0.19720051 -0.25813764 0.31555802 65280
-0.19186984 -0.25804788 0.31502596 65280
-0.18752274 -0.2581403 0.31482211 65280
-0.1828059 -0.2581403 0.31482211 65280
-0.17739725 -0.25782001 0.31443241 65280
-0.17242882 -0.2581403 0.31482211 65280
-0.16744751 -0.25813767 0.31555805 65280
-0.16272481 -0.25813767 0.31555805 65280
-0.15752983 -0.25813764 0.31555802 65280
-0.15247194 -0.25821102 0.31499067 65280
-0.14766021 -0.25819862 0.31482622 65280
-0.14248186 -0.25808197 0.31481802 65280
-0.13752408 -0.2581403 0.31482211 65280
-0.13256457 -0.25819862 0.31482622 65280
-0.12746122 -0.25782019 0.31443226 65280
-0.12243568 -0.25806218 0.31408104 65280
-0.11740854 -0.25822258 0.31409231 65280
-0.11238457 -0.25814229 0.31408679 65280
-0.10716064 -0.25828952 0.31346226 65280
-0.1023315 -0.25878578 0.31307095 65280
-0.09778145 -0.25799644 0.31191045 65280
-0.2257338 -0.25600219 0.31589305 65280
-0.2224479 -0.25480369 0.3157818 65280
-0.21747415 -0.25467521 0.31566641 65280
-0.21252434 -0.25485086 0.31531239 65280
-0.20755859 -0.25475085 0.31508437 65280
-0.20232928 -0.25497812 0.31479183 65280
-0.19762044 -0.25488389 0.31531501 65280
-0.19273496 -0.25505468 0.31506905 65280
-0.18776694 -0.2551986 0.314311 65280
-0.18238935 -0.25494307 0.31458503 65280
-0.17759684 -0.25462395 0.31478053 65280
-0.17231582 -0.25497812 0.31479183 65280
-0.1675856 -0.25488392 0.31531504 65280
-0.16253416 -0.25491136 0.31531718 65280
-0.1575107 -0.25497091 0.31535485 65280
-0.1524518 -0.25475091 0.31508428 65280
-0.14745282 -0.25494304 0.31458506 65280
-0.14258553 -0.25490072 0.31453267 65280
-0.13731943 -0.25507075 0.31454584 65280
-0.13240549 -0.25483054 0.31461942 65280
-0.12760848 -0.2549431 0.314585 65280
-0.12245623 -0.25494382 0.31385103 65280
-0.11753211 -0.25500184 0.31385556 65280
-0.11237359 -0.25482795 0.31377536 65280
-0.10742013 -0.25481638 0.31369448 65280
-0.1023507 -0.25479671 0.31395251 65280
-0.098456047 -0.25462514 0.3134596 65280
0.0083752666 -0.29895023 0.27798289 65280
0.01270107 -0.29912025 0.27701172 65280
0.017345574 -0.29914188 0.27627847 65280
0.022438601 -0.29935211 0.27597556 65280
0.027533967 -0.29892126 0.27536231 65280
0.031898968 -0.29884911 0.27391663 65280
-0.0055264249 -0.29589626 0.28239831 65280
-0.0022476616 -0.29597923 0.28209987 65280
0.0029777815 -0.29598939 0.28041324 65280
0.0074367952 -0.29571864 0.27818999 65280
0.012518307 -0.29558551 0.27686647 65280
0.015358943 -0.29558551 0.27686647 65280
0.14095271 -0.29459217 0.28049767 65280
-0.016633082 -0.29270121 0.28545803 65280
-0.012033485 -0.29282859 0.28430316 65280
-0.0073330649 -0.2928398 0.28353763 65280
-0.0027722858 -0.29235461 0.28259727 65280
0.0012753293 -0.29240403 0.28119463 65280
0.10341861 -0.28977358 0.283099 65280
0.14329425 -0.29452226 0.2824055 65280
-0.041385047 -0.2893748 0.28939173 65280
-0.037560131 -0.2893748 0.28939173 65280
-0.031856358 -0.28919992 0.28840625 65280
-0.027325366 -0.28943369 0.28767905 65280
-0.022515839 -0.28930914 0.28699613 65280
-0.017896768 -0.28929463 0.28591678 65280
-0.012969524 -0.28909713 0.28455752 65280
-0.0073661334 -0.28912783 0.28379148 65280
-0.05094735 -0.28611407 0.29288846 65280
-0.04723338 -0.28601605 0.29196712 65280
-0.042649873 -0.28594849 0.29067102 65280
-0.037877884 -0.28522998 0.28969947 65280
-0.032933839 -0.28565183 0.28849661 65280
-0.027578192 -0.285909 0.28748769 65280
-0.022989623 -0.28589898 0.28725401 65280
0.049446557 -0.28299302 0.29037029 65280
-0.066247031 -0.28220117 0.29708451 65280
-0.062407196 -0.28245822 0.29666218 65280
-0.057202082 -0.282222 0.29593426 65280
-0.052229829 -0.28285551 0.29464516 65280
-0.04751838 -0.28189245 0.29338339 65280
-0.042860642 -0.28174445 0.29210904 65280
-0.03955999 -0.28202435 0.29140902 65280
0.050393436 -0.28202435 0.29140902 65280
-0.075331219 -0.27894044 0.30058122 65280
-0.071772978 -0.2789098 0.29914775 65280
-0.067496702 -0.27911597 0.29759377 65280
-0.062641367 -0.27917826 0.29655585 65280
-0.057840034 -0.27889091 0.29558378 65280
-0.053763162 -0.27879551 0.29487157 65280
-0.087284088 -0.27567971 0.30407792 65280
-0.08202482 -0.2758427 0.30390307 65280
-0.076975524 -0.27582589 0.30222332 65280
-0.073036641 -0.27515182 0.30006194 65280
-0.069860093 -0.27556667 0.29833406 65280
-0.095653027 -0.27241433 0.30709088 65280
-0.092290938 -0.27229235 0.30581644 65280
-0.087554887 -0.27198663 0.30428457 65280
-0.082618289 -0.27270275 0.30378795 65280
-0.078576304 -0.27268711 0.30288827 65280
0.17916887 -0.26975474 0.30456659 65280
0.18325505 -0.27107686 0.30506626 65280
0.18745603 -0.27220723 0.30518335 65280
0.19231889 -0.27185488 0.30524701 65280
0.19747345 -0.27205721 0.30460232 65280
0.20037286 -0.27436292 0.30451247 65280
-0.10095818 -0.2690278 0.31121123 65280
-0.097492218 -0.26891932 0.30877748 65280
-0.093598358 -0.26828361 0.30656317 65280
-0.22773038 -0.26548988 0.31500512 65280
-0.22259064 -0.26524535 0.31526741 65280
-0.21732119 -0.26550689 0.3146936 65280
-0.21279098 -0.26563781 0.3143577 65280
-0.20751448 -0.26524717 0.31453234 65280
-0.20293769 -0.26544133 0.31491056 65280
-0.19772866 -0.26524535 0.31526741 65280
-0.19237377 -0.26524535 0.31526741 65280
-0.18816635 -0.26524535 0.31526741 65280
-0.17191045 -0.26524535 0.31526741 65280
-0.16665117 -0.26524535 0.31526741 65280
-0.16193832 -0.26543164 0.31506756 65280
-0.15788573 -0.26535404 0.31515086 65280
-0.15278585 -0.26524535 0.31526741 65280
-0.14752658 -0.26524535 0.31526741 65280
-0.14226732 -0.26524535 0.31526741 65280
-0.13760568 -0.26548988 0.31500512 65280
-0.13270502 -0.26557139 0.31491771 65280
-0.12763506 -0.26554206 0.31481585 65280
-0.12251405 -0.26524717 0.31453231 65280
-0.11761372 -0.26542383 0.31480932 65280
-0.11217978 -0.26524776 0.31416503 65280
-0.10738241 -0.26528338 0.31322014 65280
-0.10259638 -0.26519442 0.31214514 65280
-0.098743707 -0.26483512 0.31057537 65280
-0.22678857 -0.26220879 0.31566837 65280
-0.22239129 -0.26193264 0.31572443 65280
-0.21745746 -0.26158333 0.31549698 65280
-0.2126887 -0.26164043 0.31492555 65280
-0.20745201 -0.26165318 0.31472075 65280
-0.20221207 -0.26197922 0.31519216 65280
-0.19744314 -0.26190105 0.31568646 65280
-0.19264737 -0.26231462 0.31582963 65280
-0.18729626 -0.2622776 0.31536308 65280
-0.18262179 -0.26193699 0.31534246 65280
-0.17721878 -0.26228777 0.31559819 65280
-0.17252985 -0.26228559 0.31570002 65280
-0.16746843 -0.26207641 0.31584185 65280
-0.16251476 -0.2620033 0.31598076 65280
-0.15745053 -0.26158246 0.31541681 65280
-0.15234314 -0.26203477 0.31511134 65280
-0.14753686 -0.26249617 0.31577176 65280
-0.14258042 -0.26261842 0.31559172 65280
-0.13748015 -0.26191336 0.31507009 65280
-0.13248895 -0.26203635 0.3150779 65280
-0.12748086 -0.26194403 0.31503731 65280
-0.12248034 -0.2625221 0.31496197 65280
-0.11762201 -0.26273242 0.31512135 65280
-0.11263187 -0.26200587 0.31444731 65280
-0.10803508 -0.2619341 0.3134419 65280
-0.10394771 -0.26200551 0.31287664 65280
-0.021080704 -0.29951358 0.28585064 65280
-0.016836539 -0.29958031 0.28541255 65280
-0.012162946 -0.29943433 0.28412437 65280
-0.0075730588 -0.29940817 0.28297001 65280
-0.0028347231 -0.29953736 0.28232247 65280
0.0012917727 -0.29946432 0.28132132 65280
0.14149749 -0.29842839 0.28481495 65280
-0.032124206 -0.29626158 0.28868634 65280
-0.027645908 -0.29650608 0.28734291 65280
-0.022689588 -0.29614487 0.28647619 65280
-0.017671609 -0.29588628 0.28570819 65280
-0.012674534 -0.29608858 0.2842868 65280
-0.0093742087 -0.29596597 0.28378981 65280
0.14277261 -0.29740974 0.28517419 65280
-0.05640978 -0.29291239 0.29292956 65280
-0.052184623 -0.29302055 0.2920804 65280
-0.047309987 -0.2927303 0.29063228 65280
-0.04251777 -0.29280752 0.28992611 65280
-0.037349947 -0.2931067 0.28971529 65280
-0.032747429 -0.29299831 0.28902522 65280
-0.027972573 -0.29271984 0.28782076 65280
-0.023752728 -0.29269728 0.28729507 65280
-0.067137979 -0.28968444 0.29602453 65280
-0.062303197 -0.28966227 0.29504636 65280
-0.057526033 -0.28959125 0.29380298 65280
-0.052769359 -0.28897014 0.29282209 65280
-0.048351903 -0.28932378 0.29164591 65280
-0.075768173 -0.28631118 0.30000848 65280
-0.072006658 -0.28630531 0.29834858 65280
-0.067534141 -0.28578553 0.29711604 65280
-0.062384509 -0.28579798 0.29616007 65280
-0.057521917 -0.28559837 0.29542527 65280
-0.054107383 -0.28594193 0.2945393 65280
-0.086657278 -0.2825155 0.30407885 65280
-0.082318023 -0.2827616 0.30277994 65280
-0.077547245 -0.2826778 0.30132419 65280
