# .PCD v0.7 - Point Cloud Data file format
VERSION 0.7
FIELDS x y z rgba
SIZE 4 4 4 4
TYPE F F F U
COUNT 1 1 1 1
WIDTH 979
HEIGHT 1
VIEWPOINT 0 0 0 1 0 0 0
POINTS 979
DATA ascii
0.037517644 -0.11250526 -0.021838477 4278255360
0.042528994 -0.11238005 -0.021291601 4278255360
0.047686495 -0.11224885 -0.022064159 4278255360
0.052440695 -0.11225587 -0.021423856 4278255360
0.056386389 -0.1101523 -0.020905038 4278255360
-0.021871261 -0.1064108 -0.020734733 4278255360
-0.017681383 -0.10758792 -0.0218214 4278255360
-0.012254767 -0.10746758 -0.023084292 4278255360
-0.0070628673 -0.1073434 -0.023412252 4278255360
-0.0023454353 -0.1070843 -0.023679843 4278255360
0.0021009892 -0.10744169 -0.024460824 4278255360
0.007421948 -0.10727044 -0.024725592 4278255360
0.012290113 -0.10750592 -0.024453035 4278255360
0.017219685 -0.10813303 -0.024124829 4278255360
0.022232048 -0.1081518 -0.024018558 4278255360
0.027651854 -0.10787755 -0.024316331 4278255360
0.032554649 -0.1076289 -0.024064997 4278255360
0.037501685 -0.10749941 -0.023143033 4278255360
0.042521812 -0.10737228 -0.022722261 4278255360
0.047597893 -0.10724635 -0.022803647 4278255360
0.052321739 -0.10737018 -0.022723215 4278255360
0.057479851 -0.10686657 -0.021494312 4278255360
0.062309437 -0.10641503 -0.02039233 4278255360
0.065823324 -0.10803531 -0.020722365 4278255360
-0.030634828 -0.10216792 -0.020223061 4278255360
-0.027143501 -0.10194637 -0.020416772 4278255360
-0.022559576 -0.10263379 -0.021360321 4278255360
-0.017596893 -0.10255378 -0.023251073 4278255360
-0.012349099 -0.10243827 -0.023764523 4278255360
-0.0071573779 -0.10232072 -0.024091596 4278255360
-0.0020490885 -0.10282461 -0.023939474 4278255360
0.0019014403 -0.10211502 -0.024681119 4278255360
0.0088124648 -0.10006132 -0.024614954 4278255360
0.012788467 -0.10319714 -0.024718521 4278255360
0.017402805 -0.10343203 -0.024747221 4278255360
0.021403767 -0.1026485 -0.024654461 4278255360
0.032838322 -0.10424454 -0.024278263 4278255360
0.037415214 -0.10249748 -0.023882335 4278255360
0.042362876 -0.10235807 -0.022835432 4278255360
0.047405161 -0.1022303 -0.022539916 4278255360
0.052373447 -0.10208863 -0.021429142 4278255360
0.056741811 -0.10213728 -0.020494683 4278255360
0.063165121 -0.10495547 -0.020257404 4278255360
0.066110276 -0.10446291 -0.020177813 4278255360
-0.036287718 -0.096386708 -0.021279396 4278255360
-0.032297701 -0.097667895 -0.021717986 4278255360
-0.027235746 -0.097819336 -0.022255281 4278255360
-0.022558458 -0.097466946 -0.023252277 4278255360
-0.017805859 -0.097565241 -0.023977799 4278255360
-0.012434594 -0.098666161 -0.024212306 4278255360
-0.0082868636 -0.098370858 -0.024678065 4278255360
0.0083600208 -0.098401092 -0.024860354 4278255360
0.012715377 -0.098067671 -0.024184486 4278255360
0.017336003 -0.098095126 -0.02391327 4278255360
0.021476157 -0.098249644 -0.024635645 4278255360
0.037828229 -0.098386332 -0.024414131 4278255360
0.042374678 -0.097465165 -0.023302672 4278255360
0.047277622 -0.097211897 -0.02290464 4278255360
0.052243076 -0.097060293 -0.021732191 4278255360
0.056343354 -0.096931651 -0.020662637 4278255360
0.067414753 -0.096464202 -0.020850955 4278255360
0.07053519 -0.095946603 -0.020092594 4278255360
-0.040364429 -0.090897329 -0.020198112 4278255360
-0.036819763 -0.092674211 -0.022814592 4278255360
-0.032072894 -0.093418844 -0.023910752 4278255360
-0.027468584 -0.093326338 -0.024284584 4278255360
-0.023027837 -0.093947127 -0.024270056 4278255360
-0.017622747 -0.093400054 -0.024797613 4278255360
0.013367318 -0.09315753 -0.024306672 4278255360
0.017244212 -0.09308672 -0.024124311 4278255360
0.020073138 -0.094137594 -0.024853362 4278255360
0.042901956 -0.093720369 -0.024587752 4278255360
0.047441401 -0.092486925 -0.024225717 4278255360
0.052232511 -0.09206903 -0.023287097 4278255360
0.056933008 -0.091912717 -0.022101337 4278255360
0.062432326 -0.091957726 -0.021141658 4278255360
0.067424484 -0.09294758 -0.022543499 4278255360
0.071066119 -0.093082406 -0.021172615 4278255360
-0.040283196 -0.087734275 -0.021124071 4278255360
-0.037783504 -0.087821163 -0.023850916 4278255360
0.013588257 -0.088439673 -0.024676917 4278255360
0.017643563 -0.088005975 -0.024787022 4278255360
0.043916427 -0.085391216 -0.024848206 4278255360
0.04645922 -0.086222984 -0.024610637 4278255360
0.052356146 -0.086931169 -0.023429936 4278255360
0.057060413 -0.087475054 -0.021969559 4278255360
0.062457226 -0.088286206 -0.021132806 4278255360
0.067258574 -0.087879792 -0.022095973 4278255360
0.070375793 -0.08900401 -0.020527938 4278255360
-0.040766783 -0.084476851 -0.020070272 4278255360
-0.037445694 -0.082652941 -0.023013121 4278255360
-0.033270113 -0.081817634 -0.02424155 4278255360
-0.026691675 -0.080626003 -0.024941923 4278255360
-0.024144895 -0.080562189 -0.024824454 4278255360
0.012957908 -0.082849465 -0.024468256 4278255360
0.017278008 -0.082269214 -0.024397152 4278255360
0.02077993 -0.081457794 -0.024501203 4278255360
0.038646437 -0.080444619 -0.024763258 4278255360
0.043407135 -0.081110477 -0.024438204 4278255360
0.047197603 -0.08230222 -0.024234852 4278255360
0.052056126 -0.082090326 -0.023407133 4278255360
0.057395704 -0.082906753 -0.021781361 4278255360
0.062005185 -0.082521699 -0.020466017 4278255360
0.067091204 -0.082793139 -0.021651046 4278255360
-0.037352659 -0.077199951 -0.02109524 4278255360
-0.032398939 -0.077174984 -0.02222441 4278255360
-0.027871437 -0.077201828 -0.023807215 4278255360
-0.023898095 -0.077208571 -0.024454566 4278255360
0.0073868856 -0.077041149 -0.024444023 4278255360
0.012166791 -0.077777207 -0.023717156 4278255360
0.01729802 -0.077666707 -0.023730585 4278255360
0.022351258 -0.078271292 -0.024851466 4278255360
0.038622804 -0.079188935 -0.024933098 4278255360
0.043247528 -0.078235552 -0.024832284 4278255360
0.047455616 -0.077571757 -0.024713183 4278255360
0.05236534 -0.077745356 -0.024446888 4278255360
0.057070546 -0.078498185 -0.02356896 4278255360
0.06194865 -0.077910416 -0.022940243 4278255360
0.067033537 -0.077794828 -0.022893535 4278255360
0.070089079 -0.077586763 -0.020813005 4278255360
-0.037726514 -0.072286546 -0.021746671 4278255360
-0.032468632 -0.072190702 -0.021941291 4278255360
-0.027543828 -0.072415262 -0.023791106 4278255360
-0.024527326 -0.073538929 -0.024776595 4278255360
-0.00074165314 -0.071759641 -0.024848627 4278255360
0.0027857348 -0.072410479 -0.024494795 4278255360
0.0071363673 -0.07277976 -0.023753485 4278255360
0.012021162 -0.072974682 -0.024053777 4278255360
0.017259099 -0.073520705 -0.024529347 4278255360
0.067646794 -0.073974997 -0.024197051 4278255360
0.070453726 -0.07256943 -0.022058202 4278255360
-0.041303426 -0.067181006 -0.021662431 4278255360
-0.036702648 -0.068580464 -0.023856444 4278255360
-0.032681681 -0.068000659 -0.023903685 4278255360
-0.029337667 -0.06913656 -0.024595799 4278255360
0.0037436932 -0.067781553 -0.02435285 4278255360
0.0075984672 -0.067466199 -0.023785932 4278255360
0.011296161 -0.068297952 -0.024717866 4278255360
0.06993141 -0.066918448 -0.023011466 4278255360
0.070037909 -0.069523275 -0.023666514 4278255360
-0.041741803 -0.062586099 -0.021038605 4278255360
-0.039491601 -0.061616614 -0.024593147 4278255360
-0.024000637 -0.060010612 -0.024547325 4278255360
-0.012859084 -0.061108515 -0.024858633 4278255360
-0.0077446625 -0.06098035 -0.024622733 4278255360
-0.0017299801 -0.061945766 -0.024484022 4278255360
0.0025571138 -0.062643945 -0.024078848 4278255360
0.0076338723 -0.062498301 -0.023657748 4278255360
0.011311151 -0.061558113 -0.024612265 4278255360
0.069169171 -0.062450647 -0.022891687 4278255360
-0.041580588 -0.058237284 -0.020941323 4278255360
-0.039832354 -0.05833137 -0.024041103 4278255360
-0.032048956 -0.055006966 -0.024607541 4278255360
-0.027154788 -0.057085901 -0.023524867 4278255360
-0.022382237 -0.057752967 -0.023154167 4278255360
-0.017299362 -0.05778569 -0.023188656 4278255360
-0.012239128 -0.057403758 -0.023771452 4278255360
-0.0074608251 -0.05764465 -0.023667736 4278255360
-0.0026472807 -0.057731748 -0.023652328 4278255360
0.0021053627 -0.0573778 -0.022977607 4278255360
0.0072825029 -0.057276025 -0.022987606 4278255360
0.011608459 -0.057405204 -0.02425742 4278255360
0.067795761 -0.058034033 -0.023300374 4278255360
-0.041028485 -0.054056302 -0.020633781 4278255360
-0.038231403 -0.051513344 -0.023362411 4278255360
-0.031739004 -0.052502587 -0.024322489 4278255360
-0.027609847 -0.052700832 -0.022677241 4278255360
-0.022604547 -0.052590713 -0.021905551 4278255360
-0.017739788 -0.052578792 -0.021868421 4278255360
-0.012440093 -0.05246523 -0.022842048 4278255360
-0.0072516426 -0.052359328 -0.02278891 4278255360
-0.0022095814 -0.052121565 -0.022710228 4278255360
0.0022775158 -0.052315876 -0.022726247 4278255360
0.0071168467 -0.052144513 -0.023306264 4278255360
0.011291124 -0.052888229 -0.02476762 4278255360
-0.037017122 -0.047801882 -0.023379939 4278255360
-0.032191932 -0.047880307 -0.023789214 4278255360
-0.027069427 -0.047526181 -0.022714199 4278255360
-0.022104941 -0.047293916 -0.021678934 4278255360
-0.017537326 -0.047204018 -0.021654369 4278255360
-0.012733802 -0.047248617 -0.022673381 4278255360
-0.0073750541 -0.047238752 -0.023356562 4278255360
-0.0022157207 -0.047117993 -0.023180587 4278255360
0.0030766279 -0.047230527 -0.022687079 4278255360
0.0077695027 -0.047198072 -0.02386952 4278255360
-0.037734054 -0.042541668 -0.023027627 4278255360
-0.031220101 -0.044652432 -0.024947209 4278255360
-0.027045764 -0.043981835 -0.02419932 4278255360
-0.022283241 -0.042759776 -0.023360411 4278255360
-0.017862707 -0.04198578 -0.022984738 4278255360
-0.012857281 -0.042116553 -0.02324258 4278255360
-0.0075788498 -0.0420634 -0.02355673 4278255360
-0.0025299266 -0.042405084 -0.023440657 4278255360
0.0025151521 -0.042784542 -0.022734804 4278255360
0.0066606775 -0.042515665 -0.023990864 4278255360
0.027481563 -0.04084371 -0.024068942 4278255360
0.033135228 -0.041698068 -0.023730503 4278255360
0.037508227 -0.041400284 -0.023217348 4278255360
0.042533733 -0.040918946 -0.022664493 4278255360
0.049875192 -0.040210515 -0.022540623 4278255360
0.051255621 -0.040320024 -0.023467811 4278255360
0.058053039 -0.04255259 -0.021821311 4278255360
-0.03797318 -0.037639499 -0.022351025 4278255360
-0.01777894 -0.038510233 -0.024096845 4278255360
-0.012735575 -0.037287116 -0.024011543 4278255360
-0.0079092085 -0.037334904 -0.023766259 4278255360
-0.002462171 -0.037907079 -0.023419829 4278255360
0.0026391521 -0.037963659 -0.023538591 4278255360
0.0066064522 -0.038175061 -0.024551345 4278255360
0.027440466 -0.037587598 -0.023733867 4278255360
0.032299362 -0.037256613 -0.022418229 4278255360
0.037432931 -0.037109315 -0.022057677 4278255360
0.042364247 -0.037206888 -0.021439726 4278255360
0.047981255 -0.037421167 -0.02238738 4278255360
0.052549981 -0.037429512 -0.023240993 4278255360
0.055164151 -0.039096966 -0.02444884 4278255360
-0.036272727 -0.031869993 -0.022115836 4278255360
-0.03483972 -0.031479433 -0.023865232 4278255360
-0.016255736 -0.031343266 -0.02498416 4278255360
-0.01250831 -0.032164961 -0.024596484 4278255360
-0.0074843019 -0.032827437 -0.023811931 4278255360
-0.0027166158 -0.032920644 -0.023294082 4278255360
0.0022881031 -0.032644734 -0.02294456 4278255360
0.0071890429 -0.032246619 -0.023702538 4278255360
0.011545725 -0.030728996 -0.024195874 4278255360
0.024055161 -0.03321138 -0.02475862 4278255360
0.02706378 -0.032286942 -0.02340802 4278255360
0.032118581 -0.032050401 -0.022495119 4278255360
0.037134267 -0.032367602 -0.022204278 4278255360
0.042592816 -0.03273569 -0.021523913 4278255360
0.047539972 -0.032910764 -0.022222465 4278255360
0.051370792 -0.033006832 -0.021615887 4278255360
-0.0356296 -0.027184218 -0.021787433 4278255360
-0.033617996 -0.027594715 -0.024326583 4278255360
-0.015268877 -0.027307451 -0.02446725 4278255360
-0.011821121 -0.028401345 -0.024241516 4278255360
-0.0071488097 -0.027490497 -0.023300005 4278255360
-0.0024046153 -0.027534708 -0.021842821 4278255360
0.0026941746 -0.02823025 -0.020712348 4278255360
0.0073442832 -0.02777651 -0.021062693 4278255360
0.012576975 -0.02741015 -0.023153061 4278255360
0.017793499 -0.026359513 -0.023766467 4278255360
0.023218207 -0.026783481 -0.023487667 4278255360
0.027898394 -0.027452409 -0.022678761 4278255360
0.032546692 -0.027389973 -0.022089755 4278255360
0.037020244 -0.028048635 -0.021274796 4278255360
0.042169414 -0.028927952 -0.020523032 4278255360
0.047421671 -0.02891992 -0.021021811 4278255360
0.050664164 -0.028859273 -0.02099576 4278255360
-0.033979364 -0.022613153 -0.022993216 4278255360
-0.0060111731 -0.024146304 -0.024181159 4278255360
-0.0020282269 -0.022622928 -0.022555528 4278255360
0.01311522 -0.022972852 -0.021287641 4278255360
0.017389767 -0.022416964 -0.022245141 4278255360
0.022647224 -0.022375375 -0.022495633 4278255360
0.027620994 -0.022829637 -0.021599172 4278255360
0.032590158 -0.024358496 -0.021282585 4278255360
0.036120243 -0.024387404 -0.02029583 4278255360
-0.03344553 -0.017842412 -0.023001501 4278255360
-0.00044842064 -0.017891645 -0.023483275 4278255360
0.0012199581 -0.017156616 -0.020973949 4278255360
0.013137795 -0.017520487 -0.020912522 4278255360
0.017345585 -0.017967954 -0.023097491 4278255360
0.022616856 -0.018219441 -0.023380084 4278255360
0.027102448 -0.017667621 -0.021567063 4278255360
-0.032435112 -0.012515128 -0.022757908 4278255360
-0.00091639161 -0.012224361 -0.023964627 4278255360
0.001211755 -0.013250813 -0.021354681 4278255360
0.013022833 -0.012698919 -0.021421542 4278255360
0.016528241 -0.012844086 -0.024101706 4278255360
0.027428098 -0.012326613 -0.022093529 4278255360
-0.031993948 -0.0079111606 -0.022007583 4278255360
-0.027089424 -0.0077380985 -0.024650326 4278255360
-0.0071083605 -0.0060901344 -0.024556277 4278255360
-0.002654478 -0.0073442608 -0.022483727 4278255360
2.8304756e-05 -0.0090199411 -0.020105476 4278255360
0.014202885 -0.0080430359 -0.021555593 4278255360
0.017372169 -0.0072198957 -0.023529718 4278255360
0.0273932 -0.0072674304 -0.023216797 4278255360
0.03139431 -0.0069936663 -0.021182494 4278255360
-0.031155489 -0.0029408336 -0.023728086 4278255360
-0.011287719 -0.0019347072 -0.024359209 4278255360
-0.0073126853 -0.0025642216 -0.022963481 4278255360
-0.0033687279 -0.0017808527 -0.020813046 4278255360
0.014406718 -0.0042249113 -0.020543067 4278255360
0.017382599 -0.0023206472 -0.022368928 4278255360
0.022233792 -0.0024283081 -0.024942936 4278255360
0.027523734 -0.0023953319 -0.024550872 4278255360
0.032588057 -0.0024936497 -0.023571016 4278255360
0.036466144 -0.0021046698 -0.022059603 4278255360
-0.033278152 0.0028156191 -0.021828359 4278255360
-0.010434501 0.0021508187 -0.024346253 4278255360
-0.0071679726 0.0028814524 -0.023133596 4278255360
-0.0022461563 0.0027248859 -0.021914503 4278255360
0.0021838993 0.0040089786 -0.021748913 4278255360
0.012685515 0.0045053959 -0.020285675 4278255360
0.017541118 0.0026033372 -0.023606168 4278255360
0.032910623 0.0013079345 -0.024916405 4278255360
0.037710585 0.0023016483 -0.022647621 4278255360
-0.035084918 0.0083410889 -0.021144712 4278255360
-0.032695562 0.0061418861 -0.024771778 4278255360
-0.0066180602 0.0072987527 -0.024242738 4278255360
-0.0024424493 0.0076770037 -0.023480745 4278255360
0.0028008446 0.0070574135 -0.023025805 4278255360
0.0077336058 0.0081338286 -0.021186499 4278255360
0.012948923 0.0079271793 -0.021136338 4278255360
0.016294025 0.0074079931 -0.023527553 4278255360
0.038648881 0.0074518025 -0.023437301 4278255360
-0.034694411 0.011830688 -0.023361942 4278255360
-0.005399555 0.012221858 -0.024237579 4278255360
-0.0022711903 0.01225698 -0.023392973 4278255360
0.002589792 0.012338221 -0.022198236 4278255360
0.007206656 0.011753142 -0.020953132 4278255360
0.012897797 0.012002289 -0.020777097 4278255360
0.016035043 0.012637824 -0.023232671 4278255360
0.038925253 0.012281701 -0.023870362 4278255360
0.040033408 0.013642028 -0.020159492 4278255360
-0.034725949 0.016969502 -0.024306318 4278255360
-0.0054807588 0.016536593 -0.024821179 4278255360
-0.0027881265 0.017675191 -0.022685805 4278255360
0.0011048615 0.016898632 -0.020705195 4278255360
0.014838688 0.01790601 -0.020632239 4278255360
0.016604044 0.017868385 -0.023401996 4278255360
0.039140545 0.015849233 -0.024540951 4278255360
0.040929727 0.017698169 -0.022048989 4278255360
-0.037194222 0.022531018 -0.021134736 4278255360
-0.03479933 0.020868286 -0.024833651 4278255360
-0.0057987124 0.022625744 -0.02464466 4278255360
-0.0025723204 0.022669509 -0.022470495 4278255360
0.0010991693 0.023177296 -0.02050495 4278255360
0.014666341 0.021336153 -0.020428071 4278255360
0.016943924 0.02332437 -0.023612959 4278255360
0.043161415 0.021207616 -0.023041321 4278255360
0.045799591 0.023313358 -0.022991577 4278255360
-0.036580093 0.027814433 -0.022391314 4278255360
-0.0060926527 0.027438551 -0.0242955 4278255360
-0.0027376488 0.027309179 -0.023534833 4278255360
0.0019054338 0.027691513 -0.021845924 4278255360
0.014389031 0.027479336 -0.02025673 4278255360
0.016645648 0.027529389 -0.023350744 4278255360
0.047951005 0.026611686 -0.022351613 4278255360
0.050230958 0.02884993 -0.021697612 4278255360
-0.037011519 0.03285034 -0.021790275 4278255360
-0.0023910329 0.030944332 -0.024583222 4278255360
0.0025490522 0.032013223 -0.023472128 4278255360
0.0058363006 0.033058256 -0.021176862 4278255360
0.013464607 0.032811418 -0.020585777 4278255360
0.016654722 0.032280654 -0.023820145 4278255360
0.05225087 0.031793877 -0.023255834 4278255360
-0.036873057 0.037497878 -0.022552004 4278255360
0.0035844818 0.035482273 -0.024897048 4278255360
0.0072841421 0.037149489 -0.022513429 4278255360
0.012473084 0.03748922 -0.022600012 4278255360
0.016015835 0.036443889 -0.024410987 4278255360
0.054070525 0.035948977 -0.02296626 4278255360
0.055274703 0.039377958 -0.022862172 4278255360
-0.037300952 0.042230815 -0.022775998 4278255360
0.0084697679 0.040609345 -0.023828695 4278255360
0.010902993 0.040837154 -0.023907235 4278255360
0.055912979 0.042497471 -0.023754703 4278255360
-0.036697745 0.0478677 -0.023166602 4278255360
0.056409769 0.047311664 -0.023534967 4278255360
-0.035296813 0.052940384 -0.024452107 4278255360
0.013382651 0.054591075 -0.024958557 4278255360
0.057404466 0.053408459 -0.021610809 4278255360
-0.035811298 0.057423189 -0.023396077 4278255360
0.0085755065 0.05816038 -0.023908036 4278255360
0.012996547 0.057867751 -0.022948408 4278255360
0.01636479 0.058434889 -0.023811957 4278255360
0.057744272 0.057453498 -0.021800639 4278255360
-0.036537036 0.062845513 -0.021719025 4278255360
0.0083119348 0.062769994 -0.022519881 4278255360
0.012422152 0.062335268 -0.02062797 4278255360
0.016469814 0.062053129 -0.023282597 4278255360
0.058440261 0.060650125 -0.02051192 4278255360
-0.036431342 0.068239644 -0.021512361 4278255360
-0.034845367 0.067557409 -0.024036048 4278255360
0.0082582757 0.068114325 -0.022121998 4278255360
0.014152773 0.067819074 -0.020636087 4278255360
0.015809499 0.06715624 -0.022485482 4278255360
0.058506645 0.06877555 -0.024630686 4278255360
-0.035456568 0.072885469 -0.022761626 4278255360
0.0083083436 0.0729274 -0.022477398 4278255360
0.013316266 0.07260184 -0.020814838 4278255360
0.015873708 0.072058216 -0.02415094 4278255360
0.05907663 0.072608963 -0.02175005 4278255360
-0.036174588 0.077100709 -0.02083789 4278255360
-0.03413628 0.078087702 -0.0237318 4278255360
0.0075391009 0.077915981 -0.022698494 4278255360
0.013920717 0.07592307 -0.021231042 4278255360
0.016619079 0.077292517 -0.023133488 4278255360
0.059324317 0.076508626 -0.020577939 4278255360
-0.035052285 0.081972614 -0.020931644 4278255360
-0.033135846 0.082463339 -0.023259869 4278255360
0.0043921992 0.083043233 -0.024174316 4278255360
0.0063507631 0.082598433 -0.021828895 4278255360
0.01815518 0.082871541 -0.022207396 4278255360
0.05812525 0.081273004 -0.024307856 4278255360
-0.032748207 0.087093756 -0.022178998 4278255360
0.0036052838 0.087747619 -0.02370871 4278255360
0.0058756843 0.087512389 -0.021064544 4278255360
0.018310584 0.087414458 -0.022178551 4278255360
0.05652798 0.087913617 -0.023258513 4278255360
-0.031701788 0.091827616 -0.022291655 4278255360
-0.029438384 0.094615206 -0.024372445 4278255360
0.0033286661 0.091191694 -0.024311295 4278255360
0.0072671846 0.09265326 -0.022470599 4278255360
0.012817703 0.093611404 -0.021870835 4278255360
0.016911305 0.091960564 -0.02298473 4278255360
0.055499367 0.091571525 -0.022790572 4278255360
-0.030213341 0.097145066 -0.02172002 4278255360
-0.027743071 0.098384425 -0.023784662 4278255360
0.0091330782 0.095787063 -0.024304582 4278255360
0.012215681 0.095711693 -0.023973538 4278255360
0.053105526 0.09675391 -0.022594986 4278255360
-0.026877075 0.10195343 -0.021527352 4278255360
-0.023921177 0.1026765 -0.023666924 4278255360
0.050496466 0.10366659 -0.020622091 4278255360
-0.0086098015 0.11347894 -0.024865316 4278255360
-0.0092492104 0.11545126 -0.022131292 4278255360
0.043339141 0.11766152 -0.020835755 4278255360
0.0076557174 0.12076877 -0.023019118 4278255360
0.021987505 0.12170459 -0.024119211 4278255360
0.026811339 0.12483011 -0.020596275 4278255360
0.037889056 0.12152638 -0.021624627 4278255360
0.040488787 0.12070681 -0.020375693 4278255360
0.014217027 -0.14652336 -0.015075872 4278255360
0.017805271 -0.14591669 -0.015611159 4278255360
0.022746004 -0.14745682 -0.016115842 4278255360
0.027721964 -0.14749958 -0.016219066 4278255360
0.032719381 -0.14675629 -0.016149288 4278255360
0.037742697 -0.14679793 -0.015895093 4278255360
0.041140847 -0.14570776 -0.015873352 4278255360
0.01074136 -0.14036083 -0.015065486 4278255360
0.017666526 -0.14206541 -0.01558168 4278255360
0.022577457 -0.14277618 -0.016238799 4278255360
0.027701505 -0.14294274 -0.016278515 4278255360
0.032820918 -0.14279126 -0.016424323 4278255360
0.03791783 -0.14264786 -0.01644388 4278255360
0.042851232 -0.14239861 -0.016233204 4278255360
0.047547214 -0.14130734 -0.016147384 4278255360
0.051803775 -0.14041552 -0.016056521 4278255360
-0.00548397 -0.13575853 -0.015476501 4278255360
-0.0025572032 -0.13622802 -0.015268592 4278255360
0.0029143691 -0.13594627 -0.015540736 4278255360
0.0076186433 -0.13689983 -0.015684927 4278255360
0.012054659 -0.13714084 -0.016001241 4278255360
0.017148785 -0.13698277 -0.01635663 4278255360
0.022582658 -0.13794202 -0.016690055 4278255360
0.027642988 -0.13790122 -0.01721116 4278255360
0.032811619 -0.13773178 -0.017735774 4278255360
0.037932597 -0.13757727 -0.018008189 4278255360
0.043000691 -0.13744372 -0.017901579 4278255360
0.047921948 -0.13744923 -0.01758994 4278255360
0.052796029 -0.13719484 -0.01751337 4278255360
0.056726389 -0.13652481 -0.016335534 4278255360
-0.011796094 -0.13215634 -0.015262542 4278255360
-0.007143259 -0.13201419 -0.015694233 4278255360
-0.002237983 -0.13248882 -0.016323285 4278255360
0.0026140586 -0.13247357 -0.017071104 4278255360
0.0071670935 -0.13204968 -0.017840376 4278255360
0.012248822 -0.13201857 -0.018321251 4278255360
0.017359994 -0.13251272 -0.018173287 4278255360
0.022502102 -0.13299569 -0.018250788 4278255360
0.027667157 -0.13283624 -0.018711103 4278255360
0.032487519 -0.13292474 -0.019184308 4278255360
0.037981011 -0.13313901 -0.019654235 4278255360
0.042628877 -0.13385269 -0.019412531 4278255360
0.048098333 -0.13413267 -0.019104244 4278255360
0.052509628 -0.13402212 -0.018900773 4278255360
0.057693921 -0.13221058 -0.017596735 4278255360
0.061029054 -0.13017368 -0.015965508 4278255360
-0.016806714 -0.12646589 -0.015466744 4278255360
-0.012339056 -0.1274085 -0.016011348 4278255360
-0.0075404793 -0.12757647 -0.016740466 4278255360
-0.0025057569 -0.12754181 -0.018297778 4278255360
0.0017313585 -0.12775716 -0.019224769 4278255360
0.0074518993 -0.12844056 -0.0194271 4278255360
0.012107737 -0.12801011 -0.019687446 4278255360
0.017396741 -0.12871507 -0.019330995 4278255360
0.022482701 -0.12984388 -0.018927662 4278255360
0.027886398 -0.12883584 -0.019805847 4278255360
0.032700025 -0.12776211 -0.019639691 4278255360
0.054877408 -0.12583068 -0.019883903 4278255360
0.057918318 -0.12705868 -0.017926892 4278255360
0.060950421 -0.12703581 -0.016138343 4278255360
-0.025780849 -0.12205944 -0.016048172 4278255360
-0.022018328 -0.12258363 -0.016717566 4278255360
-0.017508417 -0.12262319 -0.017447451 4278255360
-0.012582682 -0.1226235 -0.01834981 4278255360
-0.0077790469 -0.123592 -0.018739624 4278255360
-0.0025925338 -0.12422284 -0.019576771 4278255360
0.031880043 -0.12458336 -0.019169202 4278255360
0.048997171 -0.12036687 -0.019898662 4278255360
0.053244539 -0.12124711 -0.019008992 4278255360
0.057654686 -0.12208795 -0.016587241 4278255360
0.060707547 -0.12141252 -0.015137872 4278255360
-0.030898318 -0.11614726 -0.01633794 4278255360
-0.027154133 -0.11780567 -0.017328607 4278255360
-0.022824153 -0.11778692 -0.017893909 4278255360
-0.017848425 -0.11769862 -0.018956268 4278255360
-0.013344347 -0.11836667 -0.019464398 4278255360
0.053399898 -0.11751128 -0.019054139 4278255360
0.057506226 -0.11705994 -0.016638609 4278255360
0.062237449 -0.11654793 -0.015715586 4278255360
0.065706022 -0.1162312 -0.015586475 4278255360
-0.031731263 -0.11276992 -0.017169563 4278255360
-0.027219601 -0.11287022 -0.018679595 4278255360
-0.022698626 -0.11275698 -0.018660476 4278255360
-0.018770397 -0.11345014 -0.019383164 4278255360
0.054041736 -0.11355916 -0.019553235 4278255360
0.057726271 -0.11227365 -0.018822005 4278255360
0.062544473 -0.11234616 -0.018150484 4278255360
0.066753633 -0.1127878 -0.017411431 4278255360
-0.036225334 -0.10755266 -0.016072394 4278255360
-0.032375127 -0.10776106 -0.018159175 4278255360
-0.027363323 -0.10779592 -0.019178906 4278255360
-0.023102224 -0.1083272 -0.019275481 4278255360
0.059439279 -0.10881761 -0.019923018 4278255360
0.062919609 -0.10873041 -0.019762492 4278255360
0.068185203 -0.10796133 -0.017921558 4278255360
-0.036960647 -0.102632 -0.016938115 4278255360
-0.032825544 -0.10315239 -0.019104881 4278255360
-0.027681619 -0.10372574 -0.019867657 4278255360
0.058593981 -0.10191064 -0.01988245 4278255360
0.062385462 -0.1024384 -0.019287182 4278255360
0.067788012 -0.10258892 -0.018636955 4278255360
0.070398636 -0.10090538 -0.01539248 4278255360
-0.04138469 -0.09652061 -0.015452502 4278255360
-0.037761047 -0.098309092 -0.018175738 4278255360
0.058630578 -0.09768118 -0.019270184 4278255360
0.062205352 -0.097999774 -0.018587476 4278255360
0.067397095 -0.098787159 -0.019563282 4278255360
0.071044572 -0.097748615 -0.016963111 4278255360
-0.042063944 -0.092456587 -0.017186513 4278255360
-0.039008707 -0.094686434 -0.019622045 4278255360
0.059004463 -0.094313048 -0.01987247 4278255360
0.061888658 -0.094321467 -0.019439975 4278255360
0.072571121 -0.092244878 -0.017054396 4278255360
-0.043389663 -0.087596461 -0.01712927 4278255360
0.06047418 -0.086447224 -0.019846125 4278255360
0.071467645 -0.087429166 -0.017907416 4278255360
-0.042779833 -0.082746699 -0.017371716 4278255360
0.063201495 -0.084693521 -0.019946719 4278255360
0.070721649 -0.082521528 -0.018351005 4278255360
-0.042662829 -0.077463813 -0.016776735 4278255360
-0.039868571 -0.078637689 -0.01979995 4278255360
0.071221538 -0.077388823 -0.018258067 4278255360
-0.042689629 -0.071785629 -0.017829413 4278255360
0.071140058 -0.072330102 -0.019194158 4278255360
-0.043889388 -0.067461267 -0.017122729 4278255360
0.071037658 -0.067860574 -0.019462867 4278255360
-0.044379435 -0.062810898 -0.016340522 4278255360
-0.043755479 -0.057651147 -0.017255271 4278255360
0.069349013 -0.057347745 -0.017254511 4278255360
-0.04301022 -0.051920414 -0.017146347 4278255360
0.067937605 -0.054068655 -0.016754644 4278255360
-0.041529775 -0.047153249 -0.017881786 4278255360
-0.040914536 -0.042627931 -0.018627545 4278255360
0.058667146 -0.042122185 -0.018818149 4278255360
-0.04124219 -0.039899394 -0.018000087 4278255360
-0.039731689 -0.036123112 -0.019442761 4278255360
0.054671697 -0.035811752 -0.019863533 4278255360
-0.040702395 -0.033022791 -0.016539959 4278255360
-0.038865551 -0.031997472 -0.01860716 4278255360
0.052937485 -0.032218203 -0.018267369 4278255360
-0.038351722 -0.027546927 -0.017495902 4278255360
0.0026908815 -0.026167333 -0.019690802 4278255360
0.039098971 -0.025914133 -0.019269882 4278255360
0.042159192 -0.026087195 -0.018758455 4278255360
0.046646886 -0.026097432 -0.018534979 4278255360
0.05161991 -0.027932301 -0.017537294 4278255360
-0.036599711 -0.02273199 -0.019066157 4278255360
0.0023424178 -0.022675335 -0.018661788 4278255360
0.0075987503 -0.022576138 -0.018604392 4278255360
0.011312909 -0.021660045 -0.019364422 4278255360
0.02944871 -0.021799758 -0.019963412 4278255360
0.032496057 -0.021685854 -0.018817691 4278255360
0.037635811 -0.022784263 -0.017026762 4278255360
0.04289005 -0.023648679 -0.016776869 4278255360
0.047465764 -0.024382785 -0.016367627 4278255360
-0.036299609 -0.017990038 -0.018678082 4278255360
0.0029594153 -0.017789632 -0.018883439 4278255360
0.0073306635 -0.017224833 -0.018389417 4278255360
0.011083879 -0.017496273 -0.019429931 4278255360
0.029212512 -0.016455591 -0.019682771 4278255360
0.032385729 -0.017609313 -0.017061716 4278255360
-0.036340825 -0.01232259 -0.017168449 4278255360
-0.03472887 -0.010577932 -0.018585799 4278255360
0.0027653947 -0.011769891 -0.019095538 4278255360
0.0071998015 -0.012633055 -0.018760132 4278255360
0.010918044 -0.012040064 -0.019413406 4278255360
0.032172389 -0.012438446 -0.017676646 4278255360
-0.03530699 -0.0075625181 -0.016999027 4278255360
-0.033512034 -0.0053259283 -0.019231049 4278255360
-0.0003035292 -0.0067661852 -0.018909359 4278255360
0.0028158352 -0.0073084086 -0.016733916 4278255360
0.0075922832 -0.0078035742 -0.016156806 4278255360
0.011326976 -0.007594347 -0.018390885 4278255360
0.032974981 -0.0085111558 -0.019300917 4278255360
0.036192767 -0.0069364011 -0.017282328 4278255360
-0.035765506 -0.0039759725 -0.01598821 4278255360
-0.033823237 -0.0025039315 -0.018615277 4278255360
-0.0013132319 -0.0030770749 -0.018823503 4278255360
0.0011794046 -0.0023357421 -0.016400484 4278255360
0.012540035 -0.0022960156 -0.017737707 4278255360
0.038333587 -0.0027470142 -0.018475099 4278255360
-0.036087729 0.0027562231 -0.016150797 4278255360
-0.00053669512 0.00049766898 -0.019391527 4278255360
0.0027345121 0.0017950982 -0.017538929 4278255360
0.0073398128 0.0036784708 -0.016864633 4278255360
0.011664145 0.0030612797 -0.01778513 4278255360
0.039962657 0.0025002211 -0.016140895 4278255360
0.040020801 0.0023908764 -0.016628446 4278255360
-0.036518961 0.0077183247 -0.018101411 4278255360
0.0088744536 0.0062703639 -0.019701181 4278255360
0.01116512 0.006653443 -0.019639274 4278255360
0.039959408 0.0056527704 -0.01706964 4278255360
0.04052446 0.0077409744 -0.016817054 4278255360
-0.0377606 0.013267845 -0.018100159 4278255360
0.0083913282 0.013627246 -0.01909698 4278255360
0.011244707 0.013719082 -0.019237502 4278255360
0.039965607 0.011283502 -0.018835859 4278255360
0.041021205 0.013320535 -0.017036842 4278255360
-0.038730994 0.017719314 -0.017245257 4278255360
0.0032855049 0.018234044 -0.018829698 4278255360
0.0069840029 0.017079756 -0.017205918 4278255360
0.011921339 0.01744692 -0.018122097 4278255360
0.04226879 0.017188996 -0.017494733 4278255360
-0.039843664 0.022481963 -0.016208304 4278255360
0.0033492669 0.02231808 -0.018291483 4278255360
0.0075129643 0.022980809 -0.015547914 4278255360
0.012589075 0.022789448 -0.01803221 4278255360
0.044279732 0.020772845 -0.018886829 4278255360
0.046914823 0.023675561 -0.017462647 4278255360
-0.039930791 0.027111903 -0.016834533 4278255360
0.0044679344 0.026550323 -0.019107668 4278255360
0.0078483298 0.027620196 -0.017063687 4278255360
0.012019016 0.027417675 -0.017966563 4278255360
0.049258791 0.027248845 -0.017742438 4278255360
0.051130511 0.029467851 -0.01719022 4278255360
-0.040301509 0.032681435 -0.016590824 4278255360
0.0083944872 0.032255322 -0.01889907 4278255360
0.011560194 0.031680793 -0.01894073 4278255360
0.05252748 0.0323589 -0.019024698 4278255360
-0.040511988 0.036801338 -0.016649554 4278255360
-0.040772572 0.043583721 -0.017068403 4278255360
0.056224294 0.041909009 -0.019114377 4278255360
-0.040810063 0.045575738 -0.017337834 4278255360
0.057302661 0.050773129 -0.019241499 4278255360
-0.038358003 0.05759494 -0.018830961 4278255360
0.05834844 0.056789652 -0.017724955 4278255360
-0.03899201 0.063579872 -0.017645838 4278255360
0.011493005 0.063302204 -0.019655896 4278255360
0.059354104 0.06368883 -0.015823903 4278255360
-0.039119639 0.067998096 -0.017033404 4278255360
0.0095349327 0.067284927 -0.018570477 4278255360
0.011801235 0.067860797 -0.018569337 4278255360
0.0096088424 0.072656676 -0.018732773 4278255360
0.011315383 0.072103873 -0.019129662 4278255360
0.05928164 0.071285591 -0.017858105 4278255360
0.0095358565 0.07727392 -0.019440783 4278255360
0.011792995 0.077591196 -0.019179257 4278255360
0.0085468814 0.082399532 -0.018831274 4278255360
0.012343235 0.082364693 -0.017207606 4278255360
0.01597748 0.083727285 -0.019146981 4278255360
-0.034326293 0.088094994 -0.019697739 4278255360
0.008395128 0.087588295 -0.017852111 4278255360
0.012421764 0.087581649 -0.016071884 4278255360
0.015701078 0.088193968 -0.018497894 4278255360
0.057544269 0.088838533 -0.019291701 4278255360
0.0083903 0.090684906 -0.018605025 4278255360
0.012175985 0.091427848 -0.01845012 4278255360
0.056664191 0.092255637 -0.017773861 4278255360
-0.032037064 0.096575901 -0.019713456 4278255360
-0.025683455 0.10518967 -0.019545814 4278255360
-0.023265615 0.1083592 -0.018841723 4278255360
-0.018598311 0.11380936 -0.016312284 4278255360
0.044393517 0.11767818 -0.017755205 4278255360
-0.005131565 0.12225826 -0.016780706 4278255360
-0.0021288618 0.12233452 -0.018157618 4278255360
0.03888651 0.12290646 -0.018730035 4278255360
0.043415122 0.12077843 -0.015694613 4278255360
0.0063940063 0.12525086 -0.016612286 4278255360
0.023223095 0.12883584 -0.015250718 4278255360
0.028023906 0.12531738 -0.019591475 4278255360
0.031907938 0.12602381 -0.018147243 4278255360
0.009751983 -0.1507324 -0.010690713 4278255360
0.01243069 -0.15061313 -0.011247618 4278255360
0.017453678 -0.15085863 -0.011639522 4278255360
0.022337712 -0.1514886 -0.012491746 4278255360
0.027652033 -0.15249501 -0.0122313 4278255360
0.032514133 -0.15188594 -0.011682192 4278255360
0.037308492 -0.151696 -0.011217883 4278255360
0.041282587 -0.15113327 -0.01008659 4278255360
-0.001215294 -0.1464128 -0.010803504 4278255360
0.0027387068 -0.14730555 -0.011264989 4278255360
0.0075577423 -0.14766738 -0.012454329 4278255360
0.012105606 -0.14720447 -0.013862228 4278255360
0.017066605 -0.14820533 -0.014456371 4278255360
0.028411426 -0.14987373 -0.014933562 4278255360
0.033111684 -0.14921646 -0.014789233 4278255360
0.038275383 -0.14924607 -0.014024599 4278255360
0.042975761 -0.14782393 -0.013477912 4278255360
0.047533743 -0.14678633 -0.012179473 4278255360
0.051415898 -0.1458026 -0.01030113 4278255360
-0.01150959 -0.14059511 -0.010579148 4278255360
-0.0071101114 -0.14194967 -0.011694761 4278255360
-0.0026658177 -0.14280578 -0.011928042 4278255360
0.0026465282 -0.14261372 -0.012637997 4278255360
0.0075588152 -0.14236377 -0.013710635 4278255360
0.012399666 -0.14255561 -0.014688602 4278255360
0.015654407 -0.14192307 -0.014612487 4278255360
0.04480312 -0.1444276 -0.014853882 4278255360
0.048408933 -0.14356744 -0.01453842 4278255360
0.053064696 -0.14269701 -0.013234342 4278255360
0.056219958 -0.1414966 -0.011651987 4278255360
-0.016422354 -0.13624504 -0.011406595 4278255360
-0.012430437 -0.1376152 -0.012338253 4278255360
-0.0077921897 -0.13791557 -0.013886707 4278255360
-0.0022314712 -0.13868567 -0.013912132 4278255360
0.0027636513 -0.13836534 -0.014213061 4278255360
0.0067094937 -0.13925278 -0.01440368 4278255360
0.01644785 -0.1389538 -0.014972067 4278255360
0.058780916 -0.137564 -0.012486422 4278255360
0.060826398 -0.13604918 -0.011145549 4278255360
-0.021857165 -0.13005859 -0.010486187 4278255360
-0.017418019 -0.13278973 -0.012627149 4278255360
-0.013594501 -0.13318352 -0.014455931 4278255360
-0.0085431263 -0.13410553 -0.014839726 4278255360
0.062125497 -0.13215604 -0.012816416 4278255360
-0.025694303 -0.12565023 -0.011773335 4278255360
-0.022028148 -0.12729409 -0.012381276 4278255360
-0.017729186 -0.12871005 -0.013774214 4278255360
-0.01435703 -0.12971641 -0.014706844 4278255360
0.063158594 -0.12690543 -0.013084872 4278255360
0.065615214 -0.12583518 -0.010260129 4278255360
-0.031350292 -0.12068519 -0.011204893 4278255360
-0.02836068 -0.1227617 -0.012697367 4278255360
-0.023110881 -0.1248806 -0.014442703 4278255360
0.062690385 -0.12205776 -0.01401023 4278255360
0.06638696 -0.12149953 -0.011561973 4278255360
-0.036399208 -0.11503029 -0.010699069 4278255360
-0.032510221 -0.11785723 -0.012724509 4278255360
-0.029826917 -0.11868014 -0.014934504 4278255360
0.062809072 -0.11853135 -0.014410699 4278255360
0.067458697 -0.11749046 -0.012401024 4278255360
-0.036538206 -0.11220016 -0.012702407 4278255360
-0.034140043 -0.11368222 -0.014472371 4278255360
0.068909071 -0.11342587 -0.013447663 4278255360
0.070458062 -0.11169754 -0.011414403 4278255360
-0.040914834 -0.10707565 -0.011485951 4278255360
-0.038155191 -0.1088984 -0.013225945 4278255360
0.070429243 -0.10787599 -0.012686802 4278255360
-0.041310541 -0.10298964 -0.012415173 4278255360
-0.039981715 -0.10226658 -0.014611242 4278255360
0.070388652 -0.10342917 -0.014043787 4278255360
-0.045265742 -0.0964645 -0.01110621 4278255360
-0.042552449 -0.098407172 -0.012947852 4278255360
0.072754733 -0.095708899 -0.013953501 4278255360
-0.046391182 -0.092592895 -0.011429416 4278255360
-0.044176042 -0.09329658 -0.014003323 4278255360
0.075047381 -0.091033623 -0.010427287 4278255360
-0.047036357 -0.087298393 -0.012324052 4278255360
0.072921686 -0.086274393 -0.013528882 4278255360
0.075011142 -0.089107484 -0.010687808 4278255360
-0.046510406 -0.081782214 -0.012803284 4278255360
0.072910912 -0.082434542 -0.012842586 4278255360
-0.046563096 -0.077626601 -0.012690632 4278255360
-0.044219442 -0.075086646 -0.014431095 4278255360
0.072336219 -0.079024844 -0.014194904 4278255360
-0.046507746 -0.073399231 -0.012346568 4278255360
-0.044243805 -0.073792219 -0.014606172 4278255360
0.073378585 -0.071162641 -0.01317904 4278255360
-0.046222463 -0.068482056 -0.013397021 4278255360
0.069146387 -0.055741861 -0.014449676 4278255360
0.070678391 -0.057390332 -0.011879494 4278255360
-0.046526439 -0.053119615 -0.011939945 4278255360
-0.046183378 -0.047939405 -0.011440238 4278255360
-0.044549555 -0.048025921 -0.014041601 4278255360
0.064815708 -0.046325117 -0.011888122 4278255360
-0.045666583 -0.041027918 -0.011501225 4278255360
-0.043403067 -0.042740956 -0.014442233 4278255360
0.059567355 -0.041405052 -0.013818929 4278255360
0.063318886 -0.043499902 -0.010321332 4278255360
-0.046129905 -0.038848534 -0.010301569 4278255360
-0.044288114 -0.03646946 -0.012550408 4278255360
-0.044249378 -0.032869056 -0.011011692 4278255360
-0.041211322 -0.027815819 -0.013307976 4278255360
0.051258184 -0.025732979 -0.01431494 4278255360
-0.040816084 -0.024389178 -0.012991076 4278255360
0.037822135 -0.020508289 -0.013661316 4278255360
0.042075045 -0.021018505 -0.012660736 4278255360
0.047689192 -0.022374839 -0.012585526 4278255360
0.050950117 -0.023922935 -0.011542713 4278255360
0.034978218 -0.015821412 -0.013421403 4278255360
0.037066989 -0.01767993 -0.012150055 4278255360
0.042129762 -0.019293115 -0.011085866 4278255360
0.045395441 -0.0197777 -0.010354063 4278255360
-0.040628351 -0.013835251 -0.010863746 4278255360
0.034625642 -0.012935638 -0.014079044 4278255360
0.037059344 -0.012764394 -0.011708682 4278255360
-0.038351156 -0.0074635595 -0.013122225 4278255360
0.0068373755 -0.0057472587 -0.014652038 4278255360
0.038259663 -0.00830248 -0.013056768 4278255360
0.041050471 -0.0071567744 -0.011001656 4278255360
-0.039860331 -0.004888773 -0.010512197 4278255360
0.0030923933 -0.0021624863 -0.014477087 4278255360
0.0071491227 -0.0024793446 -0.013415972 4278255360
0.010630257 -0.00095190108 -0.014603371 4278255360
0.039298214 -0.0031793267 -0.014400663 4278255360
0.041008212 -0.0019999892 -0.012201542 4278255360
0.0073150918 0.0011586398 -0.013607798 4278255360
0.010593213 0.0010168552 -0.014869658 4278255360
0.040969022 0.0025084615 -0.013229983 4278255360
-0.040392987 0.0092857331 -0.011432337 4278255360
0.041634284 0.0076329559 -0.011696635 4278255360
-0.041623577 0.012831733 -0.010959363 4278255360
-0.039792128 0.012679651 -0.01438397 4278255360
0.041859619 0.012294114 -0.012143215 4278255360
-0.042362392 0.017670408 -0.010888224 4278255360
0.0084062591 0.019462779 -0.01442503 4278255360
0.04375995 0.018237785 -0.013015931 4278255360
-0.042336419 0.022234768 -0.011920957 4278255360
0.0081348047 0.022097751 -0.014792411 4278255360
0.046524085 0.02266033 -0.011957901 4278255360
-0.042469881 0.026948333 -0.012392344 4278255360
0.048845865 0.025893748 -0.012782412 4278255360
-0.04270719 0.032424614 -0.0126346 4278255360
-0.042886473 0.037195504 -0.012947591 4278255360
-0.043225713 0.042142943 -0.012702929 4278255360
0.057000123 0.042712137 -0.01211253 4278255360
-0.042987727 0.047409341 -0.012977628 4278255360
0.058199234 0.048210219 -0.012286594 4278255360
-0.042631403 0.05287303 -0.012010245 4278255360
0.058543049 0.053150281 -0.012764795 4278255360
-0.041165724 0.058684126 -0.0135601 4278255360
0.059350602 0.056382492 -0.012822228 4278255360
-0.04154332 0.062426284 -0.012902906 4278255360
-0.041991532 0.067589328 -0.012271712 4278255360
-0.042742245 0.072504088 -0.010443518 4278255360
-0.040918164 0.075892136 -0.012828762 4278255360
-0.04179696 0.081032708 -0.010532161 4278255360
-0.039249033 0.080103114 -0.014827071 4278255360
-0.040385395 0.085632071 -0.0115852 4278255360
-0.039094836 0.089735642 -0.012072543 4278255360
-0.038582169 0.091977611 -0.011843232 4278255360
0.058413409 0.091198221 -0.013504444 4278255360
-0.038350239 0.095977381 -0.010853751 4278255360
0.053787567 0.10480802 -0.011520782 4278255360
0.055283703 0.10173394 -0.012043996 4278255360
0.052431814 0.10659544 -0.012333037 4278255360
-0.025806338 0.11042471 -0.01419395 4278255360
-0.021095499 0.11591475 -0.011667712 4278255360
-0.016814649 0.11876614 -0.012849024 4278255360
0.046589665 0.11687763 -0.01173039 4278255360
-0.017486431 0.12098236 -0.010149384 4278255360
-0.014537655 0.12198235 -0.011147952 4278255360
-0.0028202161 0.12457146 -0.014956618 4278255360
0.043503828 0.12391113 -0.010554964 4278255360
0.045029633 0.12078352 -0.011069519 4278255360
-0.010662936 0.12526335 -0.010386726 4278255360
-0.0065482259 0.12673648 -0.010380967 4278255360
-0.003604643 0.12704353 -0.011286745 4278255360
0.022117637 0.12942071 -0.014037086 4278255360
0.027135722 0.12954648 -0.01380563 4278255360
0.034164868 0.12775554 -0.014564099 4278255360
0.03516724 0.12915121 -0.011671418 4278255360
0.017832629 0.13053851 -0.011705453 4278255360
0.029521041 0.13083141 -0.011166362 4278255360
0.031583466 0.13088308 -0.011071233 4278255360
0.023200132 -0.15602231 -0.0060819592 4278255360
0.027483486 -0.15620725 -0.0068889987 4278255360
0.031965561 -0.15546212 -0.0066830982 4278255360
0.036374755 -0.15541805 -0.0057131443 4278255360
-0.0064842552 -0.15060529 -0.0059552509 4278255360
-0.0025792569 -0.15189534 -0.006346358 4278255360
0.0023775697 -0.15171213 -0.0077491608 4278255360
0.0071089342 -0.15243931 -0.0074698124 4278255360
0.012597568 -0.15275477 -0.0080052782 4278255360
0.017483808 -0.15363912 -0.0076085944 4278255360
0.021911182 -0.15396808 -0.0091492143 4278255360
0.025198229 -0.15416066 -0.0094657745 4278255360
0.032178529 -0.15402874 -0.00863293 4278255360
0.037625216 -0.15368089 -0.0079050008 4278255360
0.042269997 -0.15260865 -0.0070615094 4278255360
0.045835383 -0.15171504 -0.0064158048 4278255360
-0.011029929 -0.14661947 -0.0055370536 4278255360
-0.0072996616 -0.14714998 -0.0077419076 4278255360
-0.0025050864 -0.14835972 -0.0090905335 4278255360
0.0016475394 -0.14981499 -0.0091946442 4278255360
0.047847979 -0.14944468 -0.0077997353 4278255360
0.052484505 -0.14722893 -0.0075311754 4278255360
0.055541553 -0.14598107 -0.0060321931 4278255360
-0.017453805 -0.14086933 -0.0062906388 4278255360
-0.012638517 -0.14227158 -0.0077721048 4278255360
-0.0076845512 -0.14415334 -0.0094067808 4278255360
0.057728074 -0.14287047 -0.0074642617 4278255360
0.060601346 -0.14073618 -0.0064863022 4278255360
-0.021284021 -0.13662645 -0.0060399193 4278255360
-0.018043868 -0.1376891 -0.0087674018 4278255360
0.059447862 -0.13937049 -0.0087472294 4278255360
0.061868109 -0.13775773 -0.0072566364 4278255360
-0.026211575 -0.13032195 -0.006120408 4278255360
-0.022883594 -0.13226143 -0.0078418721 4278255360
-0.019964159 -0.13388239 -0.0093737822 4278255360
0.064399056 -0.1322722 -0.0086980257 4278255360
0.065758742 -0.13196707 -0.0059947167 4278255360
-0.031135373 -0.12528913 -0.006029943 4278255360
-0.027419113 -0.12740523 -0.0078347307 4278255360
-0.024190448 -0.1288812 -0.0092445146 4278255360
0.064391322 -0.12905174 -0.0098886359 4278255360
0.067110278 -0.12704521 -0.0068920124 4278255360
-0.032851458 -0.12234654 -0.0076646451 4278255360
0.068508737 -0.12264213 -0.007803889 4278255360
0.07040038 -0.12135553 -0.0059108119 4278255360
-0.036908656 -0.11738802 -0.0073769856 4278255360
0.070868351 -0.11722039 -0.0069145281 4278255360
-0.041683361 -0.11192249 -0.006579617 4278255360
-0.03916505 -0.11251517 -0.009153394 4278255360
0.071897082 -0.11343594 -0.0073214564 4278255360
-0.046373829 -0.1061473 -0.0053145308 4278255360
-0.042953834 -0.1079317 -0.0085423011 4278255360
0.072184451 -0.10752781 -0.0077761319 4278255360
-0.046363562 -0.10288344 -0.0060050022 4278255360
-0.044122256 -0.10289682 -0.0091754142 4278255360
0.072591685 -0.10301148 -0.007121535 4278255360
-0.047034711 -0.097823277 -0.0074755792 4278255360
-0.051212609 -0.090481311 -0.0056379717 4278255360
-0.048997596 -0.092872895 -0.0072274897 4278255360
0.075686492 -0.092296198 -0.0065893438 4278255360
-0.051274367 -0.087200038 -0.0060817841 4278255360
-0.048873857 -0.087547563 -0.0096203592 4278255360
0.074890874 -0.086467147 -0.0095331203 4278255360
0.076084934 -0.087596312 -0.0064601135 4278255360
-0.051360816 -0.082606249 -0.0067031253 4278255360
-0.049244583 -0.082068644 -0.0094486456 4278255360
0.074778087 -0.08255785 -0.009221999 4278255360
0.075946592 -0.082999647 -0.005905861 4278255360
-0.051669121 -0.077962942 -0.0065844413 4278255360
-0.049648181 -0.077429458 -0.0089973714 4278255360
0.074660964 -0.078000613 -0.0091664959 4278255360
0.075803228 -0.077742346 -0.0056089591 4278255360
-0.050369889 -0.072691277 -0.0074808206 4278255360
-0.048306584 -0.073496714 -0.0097959656 4278255360
0.074527346 -0.072568357 -0.0092293005 4278255360
-0.051031001 -0.068588197 -0.006044263 4278255360
-0.048671238 -0.069494769 -0.0093413945 4278255360
0.074210994 -0.066589981 -0.005670527 4278255360
0.072773151 -0.060099125 -0.0066135693 4278255360
-0.050118648 -0.057926372 -0.0066736173 4278255360
0.072067864 -0.057508633 -0.00699641 4278255360
-0.050690688 -0.054435477 -0.0054030251 4278255360
-0.048851795 -0.050658032 -0.0078397859 4278255360
0.069112547 -0.051923484 -0.0078929048 4278255360
0.070691384 -0.054278389 -0.0074984338 4278255360
-0.0490942 -0.047934905 -0.0075441133 4278255360
0.066874214 -0.047691613 -0.0073093716 4278255360
-0.048422225 -0.043177918 -0.0073080231 4278255360
0.063066088 -0.04218328 -0.0071433689 4278255360
-0.0477999 -0.037654221 -0.0075140838 4278255360
0.060141288 -0.037503853 -0.005222803 4278255360
-0.046851903 -0.032221913 -0.0066815708 4278255360
0.057491876 -0.033767194 -0.0068660919 4278255360
-0.04588028 -0.027376756 -0.0062740985 4278255360
-0.043980874 -0.027360871 -0.009044474 4278255360
0.054630585 -0.027095541 -0.0068936218 4278255360
0.055924378 -0.029540136 -0.0054910425 4278255360
-0.045398295 -0.024612099 -0.0061165188 4278255360
-0.044012509 -0.021966398 -0.0067400653 4278255360
0.049194269 -0.020640269 -0.008029772 4278255360
0.051012181 -0.020901069 -0.0058844034 4278255360
-0.042769939 -0.016605198 -0.0073986966 4278255360
0.039810918 -0.016261339 -0.0090823527 4278255360
0.042702742 -0.016772315 -0.0084665474 4278255360
0.04689423 -0.018598348 -0.0070036259 4278255360
-0.042210616 -0.01191321 -0.0079170931 4278255360
0.039274536 -0.012287259 -0.0094743539 4278255360
0.042841978 -0.012392551 -0.0077683795 4278255360
