# .PCD v0.7 - Point Cloud Data file format
VERSION 0.7
FIELDS x y z rgba
SIZE 4 4 4 4
TYPE F F F U
COUNT 1 1 1 1
WIDTH 983
HEIGHT 1
VIEWPOINT 0 0 0 1 0 0 0
POINTS 983
DATA ascii
0.037452124 0.097644106 -0.067181937 4278255360
0.042352013 0.097456202 -0.066669129 4278255360
0.04642684 0.09762083 -0.065564163 4278255360
0.050031982 0.095421538 -0.066151612 4278255360
0.023101769 0.10241826 -0.066834301 4278255360
0.027760021 0.10201572 -0.068948507 4278255360
0.032201342 0.1022297 -0.068723485 4278255360
0.037060566 0.1020108 -0.066743962 4278255360
0.023147665 0.10704927 -0.066148005 4278255360
0.027859591 0.10708822 -0.06707073 4278255360
0.030918576 0.10827942 -0.065587021 4278255360
-0.067036495 -0.13101341 -0.060521491 4278255360
-0.067851514 -0.12955737 -0.060046665 4278255360
-0.061418924 -0.11088996 -0.060425907 4278255360
-0.059240676 -0.110401 -0.060503945 4278255360
-0.06661503 -0.10740345 -0.061347201 4278255360
-0.062600173 -0.10743428 -0.061737806 4278255360
-0.057452507 -0.10720649 -0.061849169 4278255360
-0.053183071 -0.10636025 -0.061285697 4278255360
-0.066266708 -0.10297984 -0.063474856 4278255360
-0.062680252 -0.10260505 -0.063854225 4278255360
-0.057321653 -0.10328622 -0.064197265 4278255360
-0.052044004 -0.10270979 -0.06288147 4278255360
-0.047683403 -0.10224416 -0.06081 4278255360
-0.0067278668 -0.10202635 -0.06054569 4278255360
-0.0020856634 -0.10270448 -0.06120313 4278255360
0.0027835667 -0.10188168 -0.060662001 4278255360
0.0062184706 -0.10063971 -0.06096492 4278255360
-0.063273557 -0.098565541 -0.064868622 4278255360
-0.05135835 -0.098126665 -0.064262904 4278255360
-0.047230355 -0.097631834 -0.062638395 4278255360
-0.042600222 -0.096768156 -0.06099578 4278255360
-0.038151711 -0.097254135 -0.060186259 4278255360
-0.020319998 -0.095364451 -0.060017966 4278255360
-0.016314976 -0.095551364 -0.060818277 4278255360
-0.012320116 -0.096713372 -0.060413182 4278255360
-0.0076662973 -0.097520351 -0.061041027 4278255360
-0.0023894757 -0.097636148 -0.061738096 4278255360
0.002868481 -0.097443938 -0.06154906 4278255360
0.0074719265 -0.097194128 -0.061146796 4278255360
0.01189474 -0.097272471 -0.060819551 4278255360
0.016034044 -0.095934965 -0.060128681 4278255360
-0.065119654 -0.093970209 -0.06492988 4278255360
-0.046792261 -0.093512334 -0.064428113 4278255360
-0.042152651 -0.092716761 -0.061985068 4278255360
-0.037307918 -0.092301123 -0.060734704 4278255360
-0.033788592 -0.090840891 -0.06027475 4278255360
-0.028490081 -0.090025857 -0.060321577 4278255360
-0.021481536 -0.092074029 -0.060582608 4278255360
-0.017080955 -0.092172578 -0.061142407 4278255360
-0.012433976 -0.09220697 -0.061544746 4278255360
-0.0077878535 -0.092426516 -0.062456876 4278255360
-0.0025118738 -0.092339784 -0.062561542 4278255360
0.0027575716 -0.092273667 -0.062725648 4278255360
0.0075673983 -0.092037633 -0.062534504 4278255360
0.012360953 -0.092870556 -0.061564922 4278255360
0.017110012 -0.092307419 -0.060695089 4278255360
-0.041685723 -0.087980017 -0.063710071 4278255360
-0.037323855 -0.087366447 -0.06177827 4278255360
-0.032768786 -0.087193392 -0.060545392 4278255360
-0.027808011 -0.086739235 -0.060685568 4278255360
-0.022619516 -0.08758501 -0.060878418 4278255360
-0.017022915 -0.087707467 -0.062096059 4278255360
-0.012558021 -0.087576158 -0.062367149 4278255360
-0.0081085563 -0.087310985 -0.063020281 4278255360
-0.0025311708 -0.087381154 -0.063557059 4278255360
0.0024639592 -0.087297946 -0.063645691 4278255360
0.0080932304 -0.087623268 -0.06320513 4278255360
0.012569554 -0.087844364 -0.062766731 4278255360
0.0172152 -0.087356739 -0.061738782 4278255360
0.020893253 -0.087185442 -0.060549006 4278255360
-0.061892219 -0.08254844 -0.064844847 4278255360
-0.046646632 -0.080748424 -0.064771384 4278255360
-0.042409524 -0.08234711 -0.063830219 4278255360
-0.037217721 -0.082694046 -0.062403567 4278255360
-0.032186426 -0.082749389 -0.061927967 4278255360
-0.027606659 -0.08274208 -0.061809331 4278255360
-0.023071975 -0.082738943 -0.061137676 4278255360
-0.016265422 -0.082919307 -0.061711349 4278255360
-0.012191758 -0.082628131 -0.062580951 4278255360
-0.0074846447 -0.082763679 -0.063386463 4278255360
-0.0028354451 -0.082444213 -0.063314691 4278255360
0.0027471259 -0.08229053 -0.063247822 4278255360
0.0076792166 -0.082641922 -0.062867448 4278255360
0.012514271 -0.082785882 -0.062469043 4278255360
0.01718124 -0.082259722 -0.061365433 4278255360
0.020534761 -0.084059499 -0.060689211 4278255360
-0.058727209 -0.07524284 -0.061047524 4278255360
-0.052014224 -0.076153435 -0.06250792 4278255360
-0.047247857 -0.077769227 -0.062877558 4278255360
-0.042811371 -0.078445241 -0.061842963 4278255360
-0.037644036 -0.078478493 -0.061304435 4278255360
-0.032310337 -0.078192241 -0.060879625 4278255360
-0.027945578 -0.078392014 -0.06071943 4278255360
-0.016176961 -0.079796761 -0.06039916 4278255360
-0.012077801 -0.077718012 -0.061202861 4278255360
-0.0078472346 -0.078069277 -0.061982721 4278255360
-0.0028687268 -0.077020802 -0.061420284 4278255360
0.0022070035 -0.077164307 -0.061344296 4278255360
0.0078266189 -0.078120939 -0.061180629 4278255360
0.01250153 -0.078664742 -0.06100747 4278255360
0.016517527 -0.079081669 -0.06046918 4278255360
-0.051468439 -0.073347881 -0.06033738 4278255360
-0.04864879 -0.074874386 -0.060685202 4278255360
-0.0076444671 -0.073745206 -0.060141385 4278255360
0.003780745 -0.074949801 -0.060182676 4278255360
-0.0055202618 -0.050728142 -0.061325431 4278255360
-0.0041522905 -0.051109642 -0.060575634 4278255360
-0.0031458661 -0.047428474 -0.061395608 4278255360
0.029004045 0.004477933 -0.061666891 4278255360
0.031618901 0.0046429038 -0.06097427 4278255360
0.024101429 0.0087157637 -0.061119065 4278255360
0.026527382 0.0067420155 -0.063244656 4278255360
0.032958202 0.0066107512 -0.062953904 4278255360
0.036026917 0.0085654855 -0.061716668 4278255360
0.023587428 0.012421697 -0.061667196 4278255360
0.03735254 0.012347758 -0.063095152 4278255360
0.041092895 0.014316335 -0.060266867 4278255360
0.023320355 0.017151535 -0.061879687 4278255360
0.02529598 0.017085433 -0.064792082 4278255360
0.038759701 0.017304093 -0.063399836 4278255360
0.04103253 0.016965121 -0.061281592 4278255360
0.02330815 0.022174343 -0.061655521 4278255360
0.02614487 0.023685142 -0.064377107 4278255360
0.037871055 0.0230802 -0.063909009 4278255360
0.042201377 0.022639558 -0.061354533 4278255360
0.045415051 0.023331091 -0.060279436 4278255360
0.022732951 0.027221859 -0.061587937 4278255360
0.027144797 0.028181925 -0.064008661 4278255360
0.032379381 0.02783148 -0.064256527 4278255360
0.03770756 0.027610153 -0.06304872 4278255360
0.042520352 0.027799577 -0.061416276 4278255360
0.046393134 0.026870474 -0.060332276 4278255360
-0.0033039376 0.034788653 -0.060657747 4278255360
0.019736968 0.033745572 -0.060180873 4278255360
0.022490211 0.032409534 -0.062837325 4278255360
0.02747222 0.032840833 -0.064065419 4278255360
0.032421075 0.032563731 -0.063704327 4278255360
0.037501924 0.032692581 -0.062285446 4278255360
0.042587198 0.032701582 -0.06105274 4278255360
0.045485266 0.032270744 -0.060475625 4278255360
-0.0062605366 0.037920713 -0.060930006 4278255360
-0.0024460554 0.037704036 -0.062111177 4278255360
0.0014199913 0.038419574 -0.061630189 4278255360
0.019394331 0.037666753 -0.060838386 4278255360
0.022242047 0.037320867 -0.063258521 4278255360
0.027267896 0.037764639 -0.064019144 4278255360
0.032652654 0.03738983 -0.063377589 4278255360
0.037557282 0.03761892 -0.061842456 4278255360
0.042066298 0.037304208 -0.060854204 4278255360
-0.0070968568 0.04267697 -0.061359562 4278255360
-0.0031429902 0.042233303 -0.063740507 4278255360
0.00253205 0.042298526 -0.063234843 4278255360
0.0071111992 0.043339193 -0.061498672 4278255360
0.012705512 0.043978259 -0.060796738 4278255360
0.017522253 0.042845204 -0.061211668 4278255360
0.022443838 0.042161956 -0.06278415 4278255360
0.027602039 0.042428747 -0.062997699 4278255360
0.031419896 0.041908786 -0.062715709 4278255360
0.041968621 0.040486023 -0.060574099 4278255360
-0.027688183 0.049679413 -0.060596898 4278255360
-0.0070150793 0.047510728 -0.062195078 4278255360
-0.0023309737 0.047655508 -0.064184189 4278255360
0.0023876354 0.047606632 -0.064350978 4278255360
0.0070999339 0.047233418 -0.062830932 4278255360
0.012217022 0.04776907 -0.061197363 4278255360
0.017348595 0.047614619 -0.061191827 4278255360
0.022479825 0.047234744 -0.061445504 4278255360
0.02706755 0.047176689 -0.061194338 4278255360
0.031914122 0.046225742 -0.060589202 4278255360
-0.031699464 0.053500727 -0.060649194 4278255360
-0.026707105 0.052739486 -0.060511112 4278255360
-0.023088999 0.053766683 -0.060321003 4278255360
-0.0075212941 0.052096531 -0.062023468 4278255360
-0.0022434294 0.052218482 -0.063690074 4278255360
0.0022785813 0.052604303 -0.063834995 4278255360
0.0076354519 0.052394137 -0.062335327 4278255360
0.012023903 0.052305087 -0.061010651 4278255360
0.017281018 0.051024213 -0.060473338 4278255360
0.022514127 0.050483719 -0.060362905 4278255360
0.025882475 0.05151327 -0.060588002 4278255360
-0.023053765 0.057710305 -0.060753897 4278255360
-0.0073837861 0.057290509 -0.061467543 4278255360
-0.0023429617 0.057264343 -0.062526539 4278255360
0.0029515401 0.057401732 -0.062650293 4278255360
0.0076590702 0.057522282 -0.06159851 4278255360
0.010831989 0.056430593 -0.060181156 4278255360
-0.034817584 0.06431748 -0.061721481 4278255360
-0.028887525 0.063949957 -0.062356725 4278255360
-0.022257745 0.062553838 -0.061262913 4278255360
-0.018254563 0.063205227 -0.060469911 4278255360
-0.0078622028 0.062134013 -0.060827971 4278255360
-0.0024601966 0.063157514 -0.061449341 4278255360
0.0026652068 0.062908217 -0.061902009 4278255360
0.0078019276 0.062537804 -0.061271951 4278255360
0.010754235 0.062367156 -0.060309276 4278255360
-0.032525584 0.067724124 -0.062825821 4278255360
-0.027495168 0.06687595 -0.063166678 4278255360
-0.022376202 0.067275479 -0.062676795 4278255360
-0.017269462 0.067549601 -0.061115645 4278255360
-0.012871638 0.067984924 -0.060312234 4278255360
-0.007251136 0.067248866 -0.060715027 4278255360
-0.0023494959 0.067944452 -0.06133309 4278255360
0.0025722384 0.067745879 -0.062414885 4278255360
0.0078568384 0.06770362 -0.062063515 4278255360
0.011833377 0.067731038 -0.061339706 4278255360
0.015817605 0.069506273 -0.060104296 4278255360
-0.035061494 0.071975783 -0.063229948 4278255360
-0.03232497 0.072355077 -0.063442342 4278255360
-0.027515739 0.072029844 -0.063766964 4278255360
-0.022723123 0.072237119 -0.063760005 4278255360
-0.017248996 0.072509661 -0.062258974 4278255360
-0.01270353 0.072976932 -0.060924597 4278255360
-0.0069449171 0.072468981 -0.061397858 4278255360
-0.002786912 0.07207568 -0.062696263 4278255360
0.002493307 0.070898101 -0.06411396 4278255360
0.0079716817 0.071783945 -0.064178884 4278255360
0.012474574 0.072885588 -0.062880814 4278255360
0.017159887 0.072858468 -0.060603239 4278255360
0.022597291 0.073240921 -0.060579978 4278255360
0.027635254 0.072923973 -0.061391361 4278255360
0.032301746 0.07283555 -0.061839044 4278255360
0.036837272 0.073195055 -0.06140171 4278255360
0.041773565 0.074309811 -0.060643449 4278255360
0.04735861 0.07478933 -0.060547821 4278255360
0.053182893 0.074604586 -0.060900956 4278255360
0.057559915 0.074565783 -0.061024867 4278255360
-0.035352826 0.077908948 -0.062295787 4278255360
-0.032435603 0.077493206 -0.063809872 4278255360
-0.028044276 0.077241704 -0.063640743 4278255360
-0.022390611 0.077370986 -0.06372942 4278255360
-0.01753027 0.077487156 -0.063150145 4278255360
-0.012233727 0.077797726 -0.06181372 4278255360
-0.0075139925 0.077123865 -0.062987745 4278255360
-0.0037127882 0.075532272 -0.064452417 4278255360
0.013128884 0.077866241 -0.063324429 4278255360
0.01791472 0.077469304 -0.061255038 4278255360
0.022286557 0.077665791 -0.062272817 4278255360
0.026894219 0.077012345 -0.063587405 4278255360
0.032682411 0.076280907 -0.063840225 4278255360
0.037830986 0.076977685 -0.063466653 4278255360
0.042793818 0.077459708 -0.062867247 4278255360
0.04720708 0.077671155 -0.062638424 4278255360
0.052295528 0.07750611 -0.062946483 4278255360
0.057308219 0.077530101 -0.062656738 4278255360
-0.035535298 0.082871452 -0.062771469 4278255360
-0.031948835 0.081908777 -0.064546615 4278255360
-0.027530968 0.082338348 -0.064222299 4278255360
-0.022408716 0.082255945 -0.063560069 4278255360
-0.017674349 0.082505628 -0.06352628 4278255360
-0.012499206 0.082694694 -0.063340187 4278255360
-0.008745864 0.080919787 -0.064618126 4278255360
0.013358153 0.082679287 -0.063727625 4278255360
0.017976426 0.082214311 -0.06249281 4278255360
0.021979548 0.08216463 -0.063866161 4278255360
0.025090046 0.080249861 -0.064816624 4278255360
0.044109575 0.080336556 -0.064971991 4278255360
0.047775038 0.080470547 -0.064840212 4278255360
0.052921914 0.082337245 -0.064760499 4278255360
0.057724513 0.082236573 -0.063517876 4278255360
-0.035818584 0.087689593 -0.06105385 4278255360
-0.032411255 0.088035777 -0.064016536 4278255360
-0.026304774 0.087512389 -0.064185418 4278255360
-0.022268966 0.087383136 -0.064070679 4278255360
-0.017819479 0.087545797 -0.063910723 4278255360
-0.013365127 0.087570921 -0.063936129 4278255360
0.0077202991 0.088468775 -0.064804263 4278255360
0.012928866 0.087713078 -0.063898414 4278255360
0.017615639 0.087613031 -0.063423321 4278255360
0.020672865 0.086749777 -0.064304858 4278255360
0.054526292 0.088059768 -0.06418705 4278255360
0.056889914 0.087538287 -0.062530369 4278255360
-0.032632016 0.092774257 -0.06149736 4278255360
-0.027335159 0.09211801 -0.064357907 4278255360
-0.022617303 0.092410013 -0.064207152 4278255360
-0.017564707 0.09149085 -0.064005733 4278255360
-0.013781123 0.092176184 -0.064453728 4278255360
0.0034292638 0.09351407 -0.064320005 4278255360
0.006817542 0.092598334 -0.063836843 4278255360
0.012507148 0.092643574 -0.063748717 4278255360
0.018269099 0.092597052 -0.064300671 4278255360
0.020626999 0.090825215 -0.064792164 4278255360
0.05356998 0.09303318 -0.063455343 4278255360
-0.030136347 0.096836165 -0.062120527 4278255360
-0.027106553 0.097505525 -0.063653789 4278255360
-0.022657044 0.097684249 -0.062285438 4278255360
-0.017324634 0.095346496 -0.063055299 4278255360
-0.013594054 0.095482871 -0.062921181 4278255360
-0.0069276839 0.097753331 -0.062383994 4278255360
-0.0024510175 0.097986028 -0.063321047 4278255360
0.0027734339 0.098281786 -0.062994651 4278255360
0.0067785606 0.097159252 -0.062544584 4278255360
0.012926571 0.096536353 -0.063285723 4278255360
0.016909249 0.097745165 -0.063870125 4278255360
0.048852019 0.099292085 -0.063402362 4278255360
-0.0062538013 0.10107566 -0.060404465 4278255360
-0.0017796084 0.10264514 -0.060780607 4278255360
0.0027138442 0.10340728 -0.061026007 4278255360
0.0068779066 0.10127418 -0.060896441 4278255360
0.012498207 0.10132082 -0.060901612 4278255360
0.017958574 0.10283436 -0.062653869 4278255360
0.020568319 0.10371257 -0.06435933 4278255360
0.042898796 0.10181852 -0.063950084 4278255360
0.046785615 0.10219647 -0.06193582 4278255360
0.05067756 0.10189097 -0.060017385 4278255360
0.0026671812 0.10625984 -0.060867675 4278255360
0.017675228 0.10687114 -0.061423644 4278255360
0.020585202 0.10709666 -0.06350778 4278255360
0.033934824 0.10699354 -0.064945318 4278255360
0.037042923 0.10724933 -0.063101821 4278255360
0.042132579 0.10552724 -0.061475612 4278255360
0.019190498 0.11032583 -0.060524255 4278255360
0.022118755 0.11213569 -0.062141031 4278255360
0.027343653 0.11230777 -0.062749691 4278255360
0.033375628 0.11095987 -0.062201671 4278255360
0.037223853 0.11033987 -0.060701162 4278255360
-0.066319257 -0.15082966 -0.055060051 4278255360
-0.053945795 -0.15121257 -0.055367827 4278255360
0.0071723536 -0.15146935 -0.055433922 4278255360
-0.066678345 -0.14753792 -0.05612094 4278255360
-0.062520608 -0.14767553 -0.056075163 4278255360
-0.058014642 -0.14725235 -0.056011885 4278255360
-0.052923508 -0.1473318 -0.056298956 4278255360
-0.047726005 -0.14649108 -0.055610508 4278255360
-0.042539559 -0.14694504 -0.055356838 4278255360
-0.039303079 -0.14742978 -0.05501014 4278255360
-0.007084623 -0.14528656 -0.055292219 4278255360
-0.0025818869 -0.14512195 -0.055130333 4278255360
0.00063435733 -0.14500436 -0.055014715 4278255360
0.0075405911 -0.14795113 -0.055330515 4278255360
-0.066602185 -0.1427684 -0.05815319 4278255360
-0.062009417 -0.14278546 -0.057716504 4278255360
-0.057555031 -0.14250341 -0.057088412 4278255360
-0.052968897 -0.14248611 -0.057513528 4278255360
-0.048091821 -0.14231491 -0.056254305 4278255360
-0.042723723 -0.14305532 -0.055646151 4278255360
-0.038086802 -0.14203654 -0.055401973 4278255360
-0.033136331 -0.14067285 -0.055139929 4278255360
-0.016755275 -0.14158164 -0.05526109 4278255360
-0.013036989 -0.14179233 -0.055687465 4278255360
-0.0076330453 -0.14186215 -0.055862084 4278255360
-0.0026527345 -0.14206856 -0.056099199 4278255360
0.0017216653 -0.14178547 -0.055975571 4278255360
0.0057055727 -0.14095992 -0.05523473 4278255360
-0.066606879 -0.13779849 -0.059174925 4278255360
-0.062257338 -0.13769209 -0.05853571 4278255360
-0.057155959 -0.13736027 -0.057805032 4278255360
-0.052104659 -0.13729975 -0.057589419 4278255360
-0.047355913 -0.13792914 -0.056605399 4278255360
-0.04291258 -0.13800281 -0.056647733 4278255360
-0.037735343 -0.13781354 -0.056461617 4278255360
-0.032864541 -0.13752499 -0.055869423 4278255360
-0.026156925 -0.13652696 -0.055303447 4278255360
-0.020270817 -0.13765165 -0.055115886 4278255360
-0.017020628 -0.13710351 -0.055899754 4278255360
-0.012467563 -0.13714576 -0.056527048 4278255360
-0.0079361424 -0.13710776 -0.056851178 4278255360
-0.0028128102 -0.13711837 -0.056912877 4278255360
0.0024353042 -0.13733414 -0.056845874 4278255360
0.0072402135 -0.13732237 -0.056279592 4278255360
0.010769792 -0.13569257 -0.05592221 4278255360
-0.067156211 -0.13268033 -0.05862432 4278255360
-0.06252946 -0.1325295 -0.059181623 4278255360
-0.057451434 -0.13210854 -0.058151275 4278255360
-0.052260056 -0.13249278 -0.057611428 4278255360
-0.047041483 -0.13294259 -0.057313085 4278255360
-0.042435698 -0.13296311 -0.057834424 4278255360
-0.037910253 -0.1327582 -0.05753053 4278255360
-0.032785125 -0.13233826 -0.056497455 4278255360
-0.027617641 -0.13203335 -0.055887148 4278255360
-0.022406153 -0.1324399 -0.055427082 4278255360
-0.017172687 -0.13249138 -0.056128502 4278255360
-0.01213026 -0.13248029 -0.057025731 4278255360
-0.0076716915 -0.13259715 -0.056953408 4278255360
-0.0028292686 -0.13256612 -0.057053268 4278255360
0.0022895783 -0.13254687 -0.058235899 4278255360
0.0074614957 -0.13303933 -0.058105394 4278255360
0.012374602 -0.13225037 -0.056391425 4278255360
0.015896045 -0.13074261 -0.05541373 4278255360
-0.066918433 -0.12787572 -0.059749387 4278255360
-0.062925756 -0.12759195 -0.059067726 4278255360
-0.057782076 -0.1273278 -0.057895191 4278255360
-0.052429743 -0.12761885 -0.057516865 4278255360
-0.047337234 -0.12757725 -0.057367861 4278255360
-0.042081527 -0.12752327 -0.057661951 4278255360
-0.037348449 -0.12714073 -0.057303913 4278255360
-0.033044457 -0.127483 -0.056711055 4278255360
-0.027806073 -0.1273596 -0.056029581 4278255360
-0.022923775 -0.12801811 -0.055506885 4278255360
-0.017208241 -0.12784892 -0.055885255 4278255360
-0.012114964 -0.12769604 -0.056301132 4278255360
-0.0073579922 -0.12747291 -0.056504391 4278255360
-0.0028649494 -0.12777987 -0.05698172 4278255360
0.0023212135 -0.12762049 -0.057855345 4278255360
0.0073744282 -0.12761579 -0.057837106 4278255360
0.012388371 -0.12754762 -0.057038799 4278255360
0.016179569 -0.12779775 -0.055720665 4278255360
-0.065991402 -0.12274038 -0.057735272 4278255360
-0.062042706 -0.12239517 -0.057899646 4278255360
-0.057515323 -0.1224363 -0.057122149 4278255360
-0.05277314 -0.12281346 -0.056414351 4278255360
-0.047467224 -0.12297483 -0.05630435 4278255360
-0.04243692 -0.12244483 -0.056493826 4278255360
-0.037207045 -0.12223053 -0.056225337 4278255360
-0.032764144 -0.12270857 -0.055672154 4278255360
-0.027586415 -0.12287541 -0.055409521 4278255360
-0.024290256 -0.12341554 -0.055217288 4278255360
-0.017482542 -0.12417021 -0.055303648 4278255360
-0.012253217 -0.12397903 -0.055115648 4278255360
-0.0067454055 -0.1234133 -0.055669159 4278255360
-0.0024566799 -0.12319577 -0.055640243 4278255360
0.0021130294 -0.12322778 -0.056159005 4278255360
0.0074212775 -0.12317616 -0.056124255 4278255360
0.01265011 -0.12368187 -0.055670105 4278255360
-0.066410989 -0.11725443 -0.056315243 4278255360
-0.062497593 -0.11749443 -0.057215266 4278255360
-0.057145678 -0.11738301 -0.055919051 4278255360
-0.053203255 -0.1177285 -0.055260569 4278255360
-0.042698823 -0.11933103 -0.055195808 4278255360
-0.037162229 -0.11846615 -0.055402867 4278255360
-0.066648528 -0.11258319 -0.05811128 4278255360
-0.062793218 -0.11281974 -0.058350928 4278255360
-0.057411142 -0.11254178 -0.057749361 4278255360
-0.052613758 -0.11180625 -0.056421526 4278255360
-0.048076503 -0.11099972 -0.055699408 4278255360
-0.0014467686 -0.11013599 -0.055577114 4278255360
0.0011887252 -0.11003964 -0.055482373 4278255360
-0.055430792 -0.10933751 -0.059648365 4278255360
-0.051824257 -0.10833564 -0.058974199 4278255360
-0.04711666 -0.10745355 -0.05757153 4278255360
-0.042198725 -0.10675218 -0.055807926 4278255360
-0.037376828 -0.10759186 -0.056020461 4278255360
-0.032620355 -0.10757303 -0.055968843 4278255360
-0.027463645 -0.10726073 -0.055830732 4278255360
-0.022050798 -0.10656773 -0.055825233 4278255360
-0.017420456 -0.10639845 -0.055658787 4278255360
-0.012914844 -0.10632715 -0.055782601 4278255360
-0.0074479207 -0.1072742 -0.056969739 4278255360
-0.0021669418 -0.10743114 -0.057851791 4278255360
0.00244122 -0.10741256 -0.057330057 4278255360
0.0067897812 -0.10668278 -0.05673226 4278255360
0.012040831 -0.1063843 -0.056030683 4278255360
0.017599739 -0.10550741 -0.055590607 4278255360
-0.045545124 -0.10310552 -0.059391968 4278255360
-0.04228127 -0.10279828 -0.058274783 4278255360
-0.037737377 -0.10298581 -0.057976343 4278255360
-0.032737277 -0.10260596 -0.057804883 4278255360
-0.027441256 -0.10243258 -0.057673745 4278255360
-0.022149429 -0.10223912 -0.057483502 4278255360
-0.017519087 -0.10206984 -0.057317026 4278255360
-0.012827128 -0.10230616 -0.057748988 4278255360
-0.0083566755 -0.10330374 -0.05906745 4278255360
-0.0035416856 -0.10468062 -0.059908658 4278255360
0.0034121796 -0.10399054 -0.059182175 4278255360
0.0078136399 -0.10248751 -0.059018604 4278255360
0.012210689 -0.10241578 -0.058433577 4278255360
0.017510332 -0.10262275 -0.057366632 4278255360
0.022413723 -0.10185256 -0.055991292 4278255360
0.026152514 -0.10109215 -0.055510603 4278255360
0.057725511 -0.10242466 -0.055568911 4278255360
-0.041874863 -0.098866045 -0.059637368 4278255360
-0.037371896 -0.097835198 -0.05949676 4278255360
-0.032930784 -0.097268991 -0.058580458 4278255360
-0.027598478 -0.097238891 -0.058861613 4278255360
-0.022404924 -0.097332403 -0.059084617 4278255360
-0.017521575 -0.09711881 -0.059208207 4278255360
-0.013609529 -0.098486476 -0.059383564 4278255360
0.017597772 -0.097897328 -0.058994912 4278255360
0.022794478 -0.097374849 -0.057161085 4278255360
0.02639734 -0.097786516 -0.05568935 4278255360
-0.035060175 -0.09337268 -0.059371188 4278255360
-0.032265 -0.092719339 -0.059213318 4278255360
-0.027774617 -0.092456616 -0.059268124 4278255360
-0.024097592 -0.092745185 -0.059331588 4278255360
0.018691398 -0.094104916 -0.059087619 4278255360
0.022626214 -0.092190288 -0.058443725 4278255360
0.026087202 -0.092211373 -0.056226805 4278255360
-0.031664476 -0.089383803 -0.059653647 4278255360
-0.027903423 -0.088831268 -0.059676945 4278255360
-0.02458594 -0.088294968 -0.05971621 4278255360
0.023457147 -0.087636016 -0.058403328 4278255360
0.026640378 -0.086980157 -0.055518232 4278255360
0.02294118 -0.08239419 -0.058615416 4278255360
0.026076011 -0.082098275 -0.055803604 4278255360
-0.041943125 -0.075702786 -0.059498273 4278255360
-0.037890151 -0.075646475 -0.059585378 4278255360
-0.032494694 -0.075541086 -0.059624225 4278255360
-0.027236238 -0.076102711 -0.059147231 4278255360
-0.024000779 -0.078015208 -0.059058987 4278255360
-0.01796148 -0.077683181 -0.059018306 4278255360
-0.014233068 -0.078113161 -0.059873581 4278255360
0.0091635659 -0.076005414 -0.059510797 4278255360
0.012510024 -0.075883076 -0.059390493 4278255360
0.017434575 -0.076577432 -0.058998525 4278255360
0.022624664 -0.077493481 -0.057645388 4278255360
0.026092567 -0.076810896 -0.055143245 4278255360
-0.056496724 -0.073257804 -0.057407878 4278255360
-0.052405283 -0.071669519 -0.058524705 4278255360
-0.047356039 -0.072197542 -0.058428228 4278255360
-0.042449653 -0.072610691 -0.057787381 4278255360
-0.037469164 -0.072722524 -0.057734221 4278255360
-0.032738559 -0.072549582 -0.057564154 4278255360
-0.027053215 -0.072719872 -0.057215303 4278255360
-0.022624038 -0.07252346 -0.056235768 4278255360
-0.018050253 -0.07265754 -0.056497484 4278255360
-0.013430007 -0.07293649 -0.057792112 4278255360
-0.0074464232 -0.071766555 -0.058101051 4278255360
-0.0026914775 -0.072336286 -0.058442168 4278255360
0.0024021938 -0.071960837 -0.05804427 4278255360
0.0078014657 -0.07243751 -0.057726644 4278255360
0.012521885 -0.073020115 -0.057625711 4278255360
0.017248623 -0.072632179 -0.056912862 4278255360
0.02232746 -0.073142245 -0.056196608 4278255360
-0.051886082 -0.068706319 -0.056058556 4278255360
-0.047883458 -0.067730889 -0.05614201 4278255360
-0.042528301 -0.069475293 -0.055744261 4278255360
-0.037061103 -0.069687679 -0.055658147 4278255360
-0.032303147 -0.069513753 -0.055487096 4278255360
-0.027545191 -0.069339797 -0.055316038 4278255360
-0.021880977 -0.069132715 -0.055112399 4278255360
-0.0058022141 -0.06809634 -0.055241495 4278255360
-0.0023875758 -0.068794817 -0.055340081 4278255360
0.0023614168 -0.068714887 -0.055401459 4278255360
0.0057532862 -0.068497211 -0.0550474 4278255360
0.012545981 -0.069890633 -0.055247724 4278255360
0.01751139 -0.069709122 -0.055069216 4278255360
-0.04765638 -0.063833967 -0.055207953 4278255360
-0.0053165928 -0.060117051 -0.055585869 4278255360
-0.011678979 -0.057725176 -0.057486825 4278255360
-0.0071947128 -0.057024598 -0.058378942 4278255360
-0.0026518181 -0.057159469 -0.055749029 4278255360
0.00073269755 -0.055470601 -0.055451229 4278255360
-0.0054476634 -0.054139599 -0.058947183 4278255360
-0.002116628 -0.052940026 -0.057672828 4278255360
0.0024718344 -0.052479044 -0.056458332 4278255360
-0.0014868304 -0.048279703 -0.059380196 4278255360
0.0026223809 -0.047940567 -0.057697207 4278255360
-0.0016101822 -0.042550787 -0.058359668 4278255360
-0.0023780689 -0.038747057 -0.055028558 4278255360
0.027803905 0.0041414797 -0.057936877 4278255360
0.032043688 0.0035274774 -0.056597732 4278255360
0.023717009 0.0079141408 -0.057402894 4278255360
0.025646649 0.0053045303 -0.058667399 4278255360
0.034072123 0.0051184148 -0.059247367 4278255360
0.037615128 0.0073942542 -0.05743935 4278255360
0.041460104 0.0091920346 -0.055076413 4278255360
0.021294959 0.012469888 -0.057013467 4278255360
0.039786316 0.011205554 -0.058608115 4278255360
0.042643882 0.012865394 -0.056634709 4278255360
0.04643596 0.013876244 -0.055545576 4278255360
0.052144445 0.01408495 -0.05534035 4278255360
0.05571226 0.01421538 -0.05521208 4278255360
0.019975625 0.017427444 -0.057151109 4278255360
0.021304376 0.017786428 -0.059365146 4278255360
0.043333627 0.017474934 -0.059084266 4278255360
0.047777139 0.017199337 -0.056881852 4278255360
0.052782007 0.017446369 -0.056592427 4278255360
0.055684052 0.017055243 -0.055940978 4278255360
0.019949384 0.022474915 -0.056937091 4278255360
0.021271847 0.022651076 -0.059438795 4278255360
0.044036053 0.021281451 -0.05956541 4278255360
0.047598593 0.021957532 -0.058769047 4278255360
0.053194813 0.022537664 -0.057291761 4278255360
0.055819787 0.021515638 -0.055316038 4278255360
-0.0060745105 0.02953504 -0.055574507 4278255360
-0.003178589 0.029640898 -0.0554704 4278255360
0.01956109 0.027540639 -0.056748047 4278255360
0.021227129 0.027363569 -0.059812151 4278255360
0.048865639 0.028556988 -0.059424222 4278255360
0.05300317 0.027681902 -0.057677895 4278255360
0.055926107 0.02886948 -0.055440456 4278255360
-0.0071203634 0.032958612 -0.056934379 4278255360
-0.0025204867 0.032381997 -0.05782409 4278255360
0.0014350042 0.034006432 -0.056639649 4278255360
0.018850841 0.032740325 -0.056779355 4278255360
0.047912337 0.032896817 -0.059521981 4278255360
0.052904032 0.0325059 -0.057575583 4278255360
0.05601079 0.032364681 -0.055163816 4278255360
-0.0082527846 0.037414148 -0.058022924 4278255360
-0.00042806566 0.035434231 -0.059689164 4278255360
0.0029965714 0.03718105 -0.057640299 4278255360
0.0057014599 0.039314196 -0.056310758 4278255360
0.012981705 0.039377376 -0.055703603 4278255360
0.016786329 0.037488595 -0.057763577 4278255360
0.04416474 0.037691325 -0.059754245 4278255360
0.047604345 0.037925184 -0.059217252 4278255360
0.052688129 0.03780891 -0.057623424 4278255360
0.055951752 0.037359074 -0.056538559 4278255360
-0.010779172 0.042939663 -0.055571146 4278255360
-0.0089036524 0.041973859 -0.059127241 4278255360
0.0078812018 0.041483685 -0.058262952 4278255360
0.01251813 0.041537881 -0.058278434 4278255360
0.016108759 0.040910006 -0.059347771 4278255360
0.044204988 0.041115537 -0.059631303 4278255360
0.047526784 0.042123407 -0.05877883 4278255360
0.052659534 0.042017773 -0.057257555 4278255360
0.056101896 0.042789027 -0.055925965 4278255360
-0.03585685 0.049011424 -0.057534605 4278255360
-0.032721877 0.047831535 -0.05757042 4278255360
-0.027719162 0.047414616 -0.057523169 4278255360
-0.02263017 0.048467994 -0.057321712 4278255360
-0.018066376 0.048563898 -0.056609608 4278255360
-0.012010731 0.048235103 -0.056583621 4278255360
-0.0093504414 0.045427442 -0.059664942 4278255360
0.032731198 0.048865929 -0.059145689 4278255360
0.035727091 0.048992515 -0.057704985 4278255360
-0.035946146 0.052530155 -0.058704436 4278255360
-0.033177271 0.051516011 -0.059429079 4278255360
-0.029492393 0.051368311 -0.059724547 4278255360
-0.0226693 0.051389918 -0.059392236 4278255360
-0.017458029 0.05246909 -0.058115475 4278255360
-0.012479819 0.052551463 -0.057827018 4278255360
0.013787501 0.05420585 -0.059719734 4278255360
0.017686836 0.053894415 -0.059406109 4278255360
0.022532113 0.052596256 -0.059740067 4278255360
0.028636657 0.051664785 -0.05972255 4278255360
0.032977305 0.052246943 -0.058626018 4278255360
0.037083618 0.052822098 -0.056344375 4278255360
-0.036046691 0.056143388 -0.05973234 4278255360
-0.034580506 0.056197003 -0.059679627 4278255360
-0.022059448 0.055399194 -0.059821531 4278255360
-0.017745554 0.057689264 -0.059052087 4278255360
-0.01275795 0.057692394 -0.058625728 4278255360
0.012540974 0.057843581 -0.059385307 4278255360
0.017463274 0.057957515 -0.058022223 4278255360
0.022595428 0.05634822 -0.057955094 4278255360
0.027701326 0.056321308 -0.058091789 4278255360
0.032868825 0.057007864 -0.057158433 4278255360
0.037359156 0.05745323 -0.055650085 4278255360
-0.036427207 0.06324847 -0.058178626 4278255360
-0.020035796 0.060735211 -0.059615396 4278255360
-0.016656034 0.062390611 -0.059364587 4278255360
-0.012747236 0.062891439 -0.059122622 4278255360
0.012795888 0.062677369 -0.059254229 4278255360
0.017228745 0.06248562 -0.057936832 4278255360
0.022579961 0.063558474 -0.057495005 4278255360
0.027729817 0.063746765 -0.057309851 4278255360
0.032879718 0.063935027 -0.057124712 4278255360
0.036965795 0.064028755 -0.056420721 4278255360
0.040320046 0.064095721 -0.055743031 4278255360
-0.036625974 0.067174509 -0.057544857 4278255360
-0.012853883 0.066978619 -0.05949831 4278255360
-0.009895362 0.066794619 -0.059816197 4278255360
0.013652571 0.066089466 -0.059978932 4278255360
0.017363958 0.067053333 -0.058643691 4278255360
0.022664212 0.067628905 -0.058402494 4278255360
0.02743008 0.067669138 -0.058822967 4278255360
0.032801367 0.067373827 -0.058442079 4278255360
0.037406765 0.067465231 -0.057467714 4278255360
0.042354725 0.067632988 -0.056085795 4278255360
0.047756918 0.069673494 -0.055359043 4278255360
0.052164219 0.069639876 -0.055483408 4278255360
0.055892579 0.069970921 -0.055066556 4278255360
-0.036806948 0.071518466 -0.057605624 4278255360
-0.011482194 0.071068093 -0.059920222 4278255360
0.018774338 0.070893094 -0.059414744 4278255360
0.021722354 0.071000859 -0.05930876 4278255360
0.029795878 0.070017263 -0.059601761 4278255360
0.03309869 0.07048218 -0.05961448 4278255360
0.037447549 0.070965514 -0.059367687 4278255360
0.042651795 0.072237954 -0.058629416 4278255360
0.047584407 0.072436318 -0.057673126 4278255360
0.052542292 0.07238172 -0.058083512 4278255360
0.057627656 0.072242752 -0.057826065 4278255360
-0.037079267 0.07667391 -0.056552112 4278255360
0.047438867 0.075388774 -0.0597011 4278255360
0.050386883 0.075496539 -0.059595115 4278255360
0.061119653 0.078274861 -0.05583407 4278255360
-0.037375145 0.082063481 -0.055231936 4278255360
-0.037589848 0.087888047 -0.055859946 4278255360
0.059514575 0.088551626 -0.05876781 4278255360
0.061152451 0.087136909 -0.057074085 4278255360
-0.036728337 0.092556849 -0.056885749 4278255360
0.059022821 0.092470929 -0.057074472 4278255360
-0.033266477 0.09649612 -0.058932014 4278255360
-0.0092270896 0.099561051 -0.059974365 4278255360
0.056890167 0.097137228 -0.056819975 4278255360
-0.032061249 0.10187761 -0.056640826 4278255360
-0.022155337 0.10239343 -0.058486611 4278255360
-0.01683785 0.10117461 -0.057755664 4278255360
-0.012332901 0.10196991 -0.056762941 4278255360
-0.0078072622 0.10291798 -0.057970792 4278255360
0.0080055222 0.10395609 -0.059185453 4278255360
0.01176282 0.10377569 -0.059464842 4278255360
-0.0063721389 0.10629006 -0.055972293 4278255360
-0.0018364117 0.1066014 -0.058008038 4278255360
0.0030309558 0.10826106 -0.059470609 4278255360
0.0072211698 0.10721429 -0.058504425 4278255360
0.012503915 0.10774966 -0.05826664 4278255360
0.041892238 0.10935979 -0.05848632 4278255360
0.048031516 0.10707919 -0.056772992 4278255360
-0.00040434301 0.11205535 -0.055733196 4278255360
0.002235733 0.111771 -0.057903968 4278255360
0.0068862811 0.1121207 -0.05668021 4278255360
0.01252047 0.11172436 -0.056301191 4278255360
0.017397098 0.1125191 -0.057700843 4278255360
0.031289868 0.11488988 -0.059520349 4278255360
0.037483133 0.11396186 -0.057249337 4278255360
0.042115577 0.11232425 -0.055856816 4278255360
0.0025789887 0.11587875 -0.055615813 4278255360
0.018601097 0.11728756 -0.05517558 4278255360
0.022339456 0.11787812 -0.056822002 4278255360
0.02693104 0.1194088 -0.0561058 4278255360
0.032908909 0.11624922 -0.057815522 4278255360
-0.057070859 -0.16101821 -0.050572939 4278255360
-0.054147951 -0.16123962 -0.050476424 4278255360
-0.040995859 -0.16160789 -0.050322257 4278255360
-0.037395053 -0.16178802 -0.050961643 4278255360
-0.033380136 -0.16234946 -0.050994284 4278255360
-0.029898986 -0.16116646 -0.050365634 4278255360
-0.066379845 -0.15596312 -0.051673524 4278255360
-0.062270943 -0.15679973 -0.051827572 4278255360
-0.057804666 -0.15712474 -0.05209668 4278255360
-0.052630968 -0.15728581 -0.05185134 4278255360
-0.047684804 -0.15704855 -0.051012725 4278255360
-0.042137533 -0.15773743 -0.051571801 4278255360
-0.037003867 -0.15765075 -0.052896574 4278255360
-0.032484218 -0.15786755 -0.052826308 4278255360
-0.028244987 -0.15722212 -0.051713079 4278255360
-0.023778774 -0.15636028 -0.050824225 4278255360
-0.011367753 -0.15605733 -0.050320454 4278255360
-0.0075004548 -0.15591593 -0.050181419 4278255360
-0.0024132878 -0.15660533 -0.050582737 4278255360
0.003153339 -0.1570425 -0.05149655 4278255360
0.0078632757 -0.15731534 -0.051982112 4278255360
0.012336902 -0.15713522 -0.051190279 4278255360
0.01599098 -0.15568565 -0.050704256 4278255360
-0.066459626 -0.15319046 -0.053897448 4278255360
-0.062608041 -0.15254952 -0.054217905 4278255360
-0.05789892 -0.15233096 -0.054066323 4278255360
-0.052294135 -0.15254715 -0.053793304 4278255360
-0.047473513 -0.15242593 -0.05350966 4278255360
-0.042489298 -0.15287617 -0.053467147 4278255360
-0.037184335 -0.15271533 -0.053804092 4278255360
-0.032137781 -0.15274602 -0.053907886 4278255360
-0.027374096 -0.15250072 -0.0530494 4278255360
-0.022682741 -0.152551 -0.051938727 4278255360
-0.018151142 -0.15246089 -0.050961107 4278255360
-0.012528136 -0.15245616 -0.051634774 4278255360
-0.0074470788 -0.15286797 -0.052036352 4278255360
-0.0025207028 -0.15279271 -0.052323498 4278255360
0.0026218444 -0.15288287 -0.053356133 4278255360
0.0080211088 -0.15278965 -0.054594994 4278255360
0.012999572 -0.152741 -0.053183861 4278255360
0.017431207 -0.15194698 -0.051037446 4278255360
0.020160265 -0.15249249 -0.050108336 4278255360
-0.065206878 -0.14874275 -0.054730013 4278255360
-0.05808875 -0.14908679 -0.054243311 4278255360
-0.050877519 -0.14905903 -0.054965578 4278255360
-0.04765477 -0.1489412 -0.054849721 4278255360
-0.04221037 -0.14925908 -0.054456562 4278255360
-0.037257373 -0.14790228 -0.054298915 4278255360
-0.032242209 -0.1476253 -0.053913258 4278255360
-0.02710212 -0.14734802 -0.053360753 4278255360
-0.022232503 -0.14691322 -0.052901044 4278255360
-0.017586559 -0.14751977 -0.052820191 4278255360
-0.012978487 -0.1472066 -0.053592287 4278255360
-0.007922098 -0.14786401 -0.053612791 4278255360
-0.0023883432 -0.14798811 -0.05395449 4278255360
0.0026295409 -0.14795414 -0.054247707 4278255360
0.0080531761 -0.14768097 -0.054596275 4278255360
0.012927242 -0.14766468 -0.053461537 4278255360
0.01749707 -0.14758253 -0.051283166 4278255360
0.020128138 -0.14924863 -0.050277323 4278255360
-0.03708262 -0.14351203 -0.054788284 4278255360
-0.032293379 -0.14285803 -0.054180786 4278255360
-0.027300566 -0.14215147 -0.053748049 4278255360
-0.022140577 -0.14217502 -0.053874448 4278255360
-0.018178768 -0.14279114 -0.053986102 4278255360
-0.012727968 -0.14396498 -0.054649837 4278255360
-0.0090641528 -0.14391208 -0.054844365 4278255360
0.0035542175 -0.14369185 -0.054604821 4278255360
0.0078169927 -0.14272964 -0.054096185 4278255360
0.01269675 -0.14235263 -0.052516773 4278255360
0.016976483 -0.14271383 -0.050921336 4278255360
0.02005776 -0.14065886 -0.050346859 4278255360
-0.030715175 -0.1371702 -0.054749481 4278255360
-0.027649075 -0.1371637 -0.054675452 4278255360
-0.02254194 -0.13775852 -0.054360352 4278255360
0.0085925683 -0.13896979 -0.054243341 4278255360
0.012961172 -0.13761899 -0.053335652 4278255360
0.017397635 -0.13765284 -0.051359884 4278255360
0.020675026 -0.13664946 -0.050418593 4278255360
-0.022342622 -0.13491386 -0.054657564 4278255360
0.014676683 -0.13373479 -0.053974517 4278255360
0.018089212 -0.13274023 -0.052612357 4278255360
0.022300906 -0.13217953 -0.050615907 4278255360
-0.02112516 -0.12643278 -0.054978468 4278255360
-0.019415684 -0.12546404 -0.054905958 4278255360
0.018524133 -0.12763545 -0.053683117 4278255360
0.022676609 -0.12774515 -0.050764635 4278255360
0.025845952 -0.12843442 -0.05044058 4278255360
-0.048588946 -0.12077682 -0.054937594 4278255360
-0.030788019 -0.12088358 -0.054544091 4278255360
-0.028817259 -0.12081154 -0.054473236 4278255360
-0.022304639 -0.12257851 -0.054604411 4278255360
-0.017582715 -0.12191345 -0.054563202 4278255360
-0.012337767 -0.12172171 -0.054374635 4278255360
-0.0074851066 -0.12131891 -0.05482208 4278255360
-0.0025129467 -0.12089203 -0.054736942 4278255360
0.0020718202 -0.12072441 -0.05457212 4278255360
0.0071842894 -0.12083905 -0.054487459 4278255360
0.012565665 -0.12095316 -0.053960949 4278255360
0.018011801 -0.1227146 -0.05276902 4278255360
0.021759816 -0.12306992 -0.050335951 4278255360
-0.068158321 -0.11691537 -0.054174379 4278255360
-0.051008806 -0.11704661 -0.054339856 4278255360
-0.047504164 -0.11775593 -0.054132134 4278255360
-0.042891093 -0.11665225 -0.054513939 4278255360
-0.037973046 -0.11683726 -0.054626428 4278255360
-0.032278374 -0.11740234 -0.054251373 4278255360
-0.027195178 -0.11707537 -0.054017007 4278255360
-0.022755392 -0.1178285 -0.053549498 4278255360
-0.01777371 -0.11743937 -0.053334646 4278255360
-0.012479231 -0.11793513 -0.053148925 4278255360
-0.0072632581 -0.11755471 -0.053033873 4278255360
-0.0025965795 -0.11754087 -0.052687161 4278255360
0.0020162836 -0.11728377 -0.052227668 4278255360
0.0071147755 -0.11717241 -0.051877707 4278255360
0.012801506 -0.11776906 -0.051712342 4278255360
0.017706476 -0.11780339 -0.05071833 4278255360
-0.051352695 -0.11351842 -0.054633006 4278255360
-0.046926863 -0.11338262 -0.054134227 4278255360
-0.042349994 -0.11235646 -0.054091647 4278255360
-0.037790172 -0.11274949 -0.054383695 4278255360
-0.032498822 -0.1125568 -0.054193161 4278255360
-0.027204782 -0.1123818 -0.054062739 4278255360
-0.022585474 -0.11215728 -0.053716995 4278255360
-0.017955117 -0.11198799 -0.053550519 4278255360
-0.012755997 -0.11285368 -0.052960366 4278255360
-0.007426627 -0.11228903 -0.053148173 4278255360
-0.0020507947 -0.11268204 -0.052625529 4278255360
0.0025786012 -0.11255051 -0.05257865 4278255360
0.0072100982 -0.11228738 -0.052113086 4278255360
0.01251138 -0.11196418 -0.0515031 4278255360
0.017681338 -0.11205445 -0.050674759 4278255360
-0.045238994 -0.10958449 -0.05475881 4278255360
-0.041925095 -0.10946333 -0.054639667 4278255360
-0.025301829 -0.10916214 -0.05499658 4278255360
-0.021994442 -0.10904123 -0.054877669 4278255360
-0.0173641 -0.10887195 -0.054711215 4278255360
-0.012395971 -0.10899977 -0.054414414 4278255360
-0.0054146647 -0.10997696 -0.054764308 4278255360
-0.0027739629 -0.10988042 -0.054669373 4278255360
0.0038277879 -0.10963907 -0.054432027 4278255360
0.0073393509 -0.10909892 -0.054463066 4278255360
0.012618639 -0.10839277 -0.054112077 4278255360
0.017838858 -0.10808171 -0.053255893 4278255360
0.022573598 -0.10763064 -0.05228509 4278255360
0.026244529 -0.10728475 -0.051235616 4278255360
0.056829073 -0.10585302 -0.051089361 4278255360
0.023201086 -0.10438291 -0.05440101 4278255360
0.027753778 -0.102373 -0.052603357 4278255360
0.031178109 -0.10169236 -0.050958313 4278255360
0.053223096 -0.10133277 -0.05263862 4278255360
0.057132207 -0.10243263 -0.052975982 4278255360
0.028276898 -0.097087115 -0.054484837 4278255360
0.032257043 -0.097963698 -0.052918009 4278255360
0.037051 -0.096877396 -0.050896838 4278255360
0.04110495 -0.096128441 -0.050230429 4278255360
0.05358059 -0.097779505 -0.05183471 4278255360
0.056742229 -0.098162688 -0.053197525 4278255360
0.028181367 -0.092201605 -0.054339983 4278255360
0.03197854 -0.092627279 -0.052112542 4278255360
0.035759129 -0.093490601 -0.050433114 4278255360
0.053792946 -0.094412185 -0.050252646 4278255360
0.057309397 -0.094043471 -0.051075228 4278255360
0.028323196 -0.087827958 -0.0540388 4278255360
0.031371586 -0.087409355 -0.051099546 4278255360
0.028302588 -0.082326971 -0.053538404 4278255360
0.030688547 -0.082821384 -0.051278576 4278255360
0.027705185 -0.077158652 -0.053322494 4278255360
0.030388899 -0.077869795 -0.050595045 4278255360
0.024320893 -0.071148708 -0.054179467 4278255360
0.027564205 -0.072394237 -0.052589297 4278255360
0.030403666 -0.074852616 -0.050317913 4278255360
-0.056073293 -0.068134233 -0.050770752 4278255360
-0.052483618 -0.066511452 -0.053354606 4278255360
-0.046943642 -0.06508711 -0.054693729 4278255360
-0.042774044 -0.066675127 -0.054280922 4278255360
-0.037328415 -0.066653475 -0.053615525 4278255360
-0.032566458 -0.066353351 -0.053135253 4278255360
-0.027730428 -0.066492096 -0.053733885 4278255360
-0.022315428 -0.066695943 -0.053921565 4278255360
-0.017466962 -0.066306293 -0.053828381 4278255360
-0.010683 -0.065040663 -0.052901536 4278255360
-0.005640924 -0.065787286 -0.05379352 4278255360
-0.0024297982 -0.066898257 -0.054280549 4278255360
0.0023346916 -0.066504061 -0.053568184 4278255360
0.0080914721 -0.066717103 -0.052855 4278255360
0.012569465 -0.066734403 -0.052880026 4278255360
0.017255999 -0.066942126 -0.053043015 4278255360
0.022774018 -0.067309767 -0.053043924 4278255360
0.027638577 -0.067848906 -0.05098775 4278255360
-0.05151546 -0.062890485 -0.050938629 4278255360
-0.047119088 -0.061859861 -0.05367285 4278255360
-0.042429298 -0.06253019 -0.052349225 4278255360
-0.037913583 -0.062410533 -0.051097915 4278255360
-0.032461718 -0.062530562 -0.05081398 4278255360
-0.027291194 -0.062641665 -0.051610567 4278255360
-0.022458859 -0.062640414 -0.05186101 4278255360
-0.017600141 -0.062990248 -0.052958347 4278255360
-0.014183559 -0.062770441 -0.052603871 4278255360
-0.0070816576 -0.062862188 -0.053791992 4278255360
-0.0025262982 -0.062663272 -0.052955948 4278255360
0.0020731613 -0.062627882 -0.052344404 4278255360
0.007762365 -0.062481374 -0.051261641 4278255360
0.012410201 -0.062240377 -0.051639646 4278255360
0.017364569 -0.062097698 -0.050839603 4278255360
0.022436894 -0.063193426 -0.050882325 4278255360
0.026969261 -0.064754769 -0.050595537 4278255360
-0.04687731 -0.057839513 -0.051641271 4278255360
-0.043134674 -0.057831571 -0.051304422 4278255360
-0.039985858 -0.058658913 -0.050371975 4278255360
-0.026074879 -0.059831083 -0.050301507 4278255360
-0.022624254 -0.059704944 -0.050177455 4278255360
-0.013592742 -0.058359236 -0.054527149 4278255360
-0.0025961325 -0.059628218 -0.054565169 4278255360
0.0023939461 -0.057763323 -0.053456709 4278255360
0.0076680258 -0.057709172 -0.05230774 4278255360
0.012476377 -0.057499215 -0.052054152 4278255360
0.016815163 -0.05797413 -0.050745286 4278255360
-0.043659382 -0.054316714 -0.0506064 4278255360
-0.015212342 -0.052577943 -0.051458053 4278255360
0.0041315407 -0.053467244 -0.054439344 4278255360
0.0074195638 -0.052410766 -0.052700356 4278255360
0.012606464 -0.052492663 -0.051307626 4278255360
0.01569467 -0.053999454 -0.050444007 4278255360
0.03149014 -0.052044496 -0.050402269 4278255360
0.007222347 -0.048535913 -0.052647524 4278255360
0.01147183 -0.048177868 -0.050735109 4278255360
0.024025999 -0.04609172 -0.050262287 4278255360
0.027616449 -0.047056153 -0.050476775 4278255360
0.030372001 -0.045975432 -0.050632954 4278255360
0.056607626 -0.046070844 -0.050358586 4278255360
0.0039190799 -0.040690735 -0.052900173 4278255360
0.019281872 -0.040595442 -0.050026521 4278255360
0.023415245 -0.042529121 -0.051105782 4278255360
0.027602158 -0.042191625 -0.050549433 4278255360
0.030392744 -0.042762741 -0.050251529 4278255360
0.053190894 -0.04104495 -0.050841331 4278255360
0.055987231 -0.042265013 -0.051977143 4278255360
-0.0020084456 -0.036589146 -0.053048089 4278255360
0.0039000586 -0.038129598 -0.050664522 4278255360
0.019254677 -0.037568256 -0.050112508 4278255360
0.022711448 -0.037791327 -0.050747775 4278255360
0.027593024 -0.037589818 -0.050521538 4278255360
0.030395128 -0.037370279 -0.050167859 4278255360
0.049844764 -0.035567403 -0.050421454 4278255360
0.05248072 -0.037569657 -0.051549286 4278255360
0.055903398 -0.037662923 -0.052839719 4278255360
-0.0018116981 -0.032585993 -0.051757239 4278255360
0.0013289824 -0.031809047 -0.051063731 4278255360
0.022704162 -0.034617171 -0.050531693 4278255360
0.049539946 -0.032108858 -0.050418146 4278255360
0.052652501 -0.032539144 -0.051827632 4278255360
0.055243947 -0.032539457 -0.0523801 4278255360
-0.00096169114 -0.02843529 -0.050680652 4278255360
0.0013703704 -0.02790983 -0.050764948 4278255360
0.043004535 -0.026243657 -0.0500376 4278255360
0.048262663 -0.027398705 -0.051030718 4278255360
0.052469887 -0.027209297 -0.051768228 4278255360
0.055398725 -0.029716864 -0.051307239 4278255360
0.028977625 -0.021925703 -0.05024378 4278255360
0.032736309 -0.022813931 -0.050074108 4278255360
0.043282993 -0.0238664 -0.050288744 4278255360
0.047592722 -0.023258746 -0.050489403 4278255360
0.052083798 -0.022479564 -0.050664909 4278255360
0.028499 -0.017233282 -0.050273865 4278255360
0.033036537 -0.017020985 -0.050366588 4278255360
0.037026636 -0.016840413 -0.050253414 4278255360
0.040727548 -0.015904978 -0.050170824 4278255360
0.04796771 -0.019913271 -0.050064549 4278255360
0.02839867 -0.012472644 -0.050239749 4278255360
0.031315409 -0.011955038 -0.05036331 4278255360
0.035997219 -0.014162943 -0.050715111 4278255360
0.027995296 -0.007316947 -0.050514527 4278255360
0.031237431 -0.007484749 -0.050690465 4278255360
-0.0039446503 -0.00035895407 -0.050479919 4278255360
0.027790286 -0.0023025721 -0.050618216 4278255360
0.032003902 -0.0021362305 -0.051124141 4278255360
0.036780484 -0.0011643916 -0.050282724 4278255360
-0.0039860532 0.0014616102 -0.050105743 4278255360
